-8.282688461851816,-81.054639431476,0.0
53.799004697529476,44.31236311978903,0.0
29.82432524320464,11.86405821347766,0.0
-0.40553388594428375,-47.87335483926432,0.0
-25.50942950334423,17.184228384816603,0.0
-18.306806608530362,55.21468444689639,0.0
-20.626425528813837,-108.59758119263074,0.0
-28.129280109254506,40.30270069946757,0.0
-20.792050700048577,6.326625842044179,0.0
-34.3652852878582,85.4572501137777,0.0
21.011640289393867,23.601181558239038,0.0
29.466452491249985,102.16269497405311,0.0
56.0875058857658,-24.39583010337563,0.0
-29.00896122871793,23.21893351608947,0.0
93.42586561832155,-40.42817157838112,0.0
-50.966390508371454,6.1131315527672445,0.0
-33.37288754389874,165.98592386373815,0.0
86.329637152348,32.75591623148187,0.0
-11.396346620548151,10.745328607990473,0.0
-26.75976951110804,7.453052414153675,0.0
0.7180748846475368,-57.2245615640868,0.0
35.822898886705644,29.471970003516773,0.0
-56.54760586125583,18.86463484262133,0.0
-71.16023669922593,-4.981202146868009,0.0
-26.90524208163165,51.744875082006594,0.0
-60.72718780266047,-37.389241190244,0.0
77.65503333970962,51.70656290308595,0.0
77.82037442214411,18.113143425099967,0.0
36.973341314743195,-84.61467673991925,0.0
-41.36581679660421,-70.60357222958731,0.0
-7.850361363749937,-35.71426575235488,0.0
5.551193635143036,96.51364258474074,0.0
76.7799635747785,-8.005441408605856,0.0
34.860102693477785,126.64260357705386,0.0
-3.0511222820566783,-73.6096804939298,0.0
16.941259214836695,107.70795084018728,0.0
-208.55044344715665,38.648982236581006,0.0
41.65955106319268,73.49927246644313,0.0
59.652806998590194,-102.8509361747799,0.0
88.075440761271,-9.167652202127353,0.0
93.57657233588087,-60.000981651251614,0.0
-58.43770899581051,-46.86506972622601,0.0
28.085965281223814,-31.9335732422818,0.0
10.439068389814796,-79.6009052730905,0.0
-51.91263409932251,-64.15431309465498,0.0
-42.74397199701524,38.28466554608701,0.0
-11.99121869703596,27.053326020275662,0.0
-17.56961626237089,53.616573255853005,0.0
-24.391815501745302,16.412235629339527,0.0
-6.919661669033683,142.18640259484005,0.0
16.785801842298056,56.72537329581468,0.0
50.39936663076033,-83.10432733973559,0.0
-59.01073421595219,12.362647964344948,0.0
48.96883800632056,-106.1360659931887,0.0
41.6738018471764,-2.858375113085219,0.0
-80.05261586274236,-46.35402477926277,0.0
1.3709387538671798,-103.02740940731341,0.0
12.275175701677208,-34.68681391261259,0.0
-10.093349110134815,41.993944121455144,0.0
-69.35162133824156,-142.5965810457728,0.0
56.043214881565476,-43.435667079106615,0.0
61.509775929638245,44.8291267279939,0.0
31.577612469609257,-7.319359405211641,0.0
-43.41039459346762,-31.647373094849204,0.0
-23.444901318995793,24.702088082860822,0.0
-61.91743266418614,-122.30094915820628,0.0
-6.453386515577584,44.20352509046844,0.0
76.0410984525871,11.43537151642374,0.0
37.71270412986869,41.45311732275733,0.0
-73.4103292039191,-24.147880427386905,0.0
-5.186435800904863,53.18988312207669,0.0
-23.67443533260013,54.43369164039273,0.0
70.39129624608397,39.742872031462184,0.0
-42.381651858966116,137.81348489946936,0.0
-109.09621084497006,-0.8380192633675928,0.0
-0.0834040869466799,-36.88382872917012,0.0
19.702110728244467,28.027955157903925,0.0
-41.7943336258175,88.48277566967472,0.0
-45.88623037345299,-102.6476982005798,0.0
144.40161513312177,-36.290597828413524,0.0
-30.50892486082695,0.7067969291131289,0.0
-32.86633383453477,169.75832054912783,0.0
-29.166466887604724,99.21064792239657,0.0
-123.19468996710073,-77.2584385829048,0.0
-8.973735392732928,23.56723847795858,0.0
7.857373753378047,-68.15940391529598,0.0
14.891425067035632,-37.78212427564588,0.0
-5.43483090612735,-31.79475107526935,0.0
-1.7980053337506365,-64.68501762573867,0.0
51.92796115196791,-43.23392019862285,0.0
77.10898508151546,134.20217896879643,0.0
27.56617758995043,-61.15827952627032,0.0
-79.84359909733077,20.550552277542618,0.0
-20.50010197476699,142.1337793871376,0.0
-8.456848551219958,-14.227317303385933,0.0
1.6994992170091257,-67.48978433217515,0.0
10.257491642929462,-28.604555839472653,0.0
-75.59643321668494,-25.002173719293907,0.0
32.9009541326959,68.53684267245367,0.0
-32.42344557928594,24.152445592387068,0.0
86.89765882133199,-49.82340491818489,0.0
-7.021017720314991,40.36006404018116,0.0
35.31811166276915,-52.89511289318547,0.0
46.05650434199939,-38.958514106749426,0.0
59.00459505089552,129.382621236139,0.0
-157.95735446890876,69.00753012069768,0.0
0.40874720596762537,74.45315919496711,0.0
50.256101215387375,-12.845968763597208,0.0
-40.35363455768174,9.981319645307844,0.0
-107.6971213115686,-53.74491926251869,0.0
-2.6914476766559567,35.375480898620864,0.0
15.599544774110813,-182.59448097835332,0.0
53.421881481452836,23.696352733758523,0.0
16.2964115864038,-20.983003180864273,0.0
-24.577488233572684,114.16599140491657,0.0
31.426498298112598,-88.90266923039371,0.0
17.26558231697662,-162.72233977378207,0.0
-26.88042011659988,7.503254988909381,0.0
59.96566069759282,25.625701221803396,0.0
-41.978716418801824,-138.92975462092835,0.0
-0.33375595721382456,32.768610906533205,0.0
65.98924944232994,113.63360682511295,0.0
79.93048836140181,-14.054507552167166,0.0
7.595699087913411,16.738465776309113,0.0
-20.21650899567627,151.3172612168701,0.0
-48.39176224710358,-156.0359947037469,0.0
24.495252207765333,41.67893268724602,0.0
-5.611065627121066,-87.33317240875331,0.0
74.71256161489481,-78.21888282816613,0.0
-6.373347779836775,-27.416530056387067,0.0
10.126089420309032,-30.37764061578311,0.0
48.265429109183025,-52.19583341516707,0.0
-51.89342762491746,33.61821391144928,0.0
27.879922198460566,-86.24552409208876,0.0
-81.55035568680418,56.948490754697254,0.0
-3.8000416494408022,28.325122467619536,0.0
-39.11096038021101,-6.970408515710343,0.0
-10.080000074587343,39.427992837667475,0.0
9.684724025085242,-9.264736497836079,0.0
42.11408844051392,-22.8995172080065,0.0
-85.270932745018,140.39496526274812,0.0
-68.0768655566228,-25.47011493729724,0.0
12.159243909865012,26.868518930305967,0.0
-52.47927237907919,26.7064605241273,0.0
4.747003072588477,-44.536171297353064,0.0
120.96499786232435,72.82585024070941,0.0
34.70234632771451,-52.925016573626955,0.0
19.410791817458488,-20.44412344532533,0.0
10.365325649660287,129.87712537987912,0.0
16.87328106360554,-33.45259490304993,0.0
79.64491946788351,105.13028565482938,0.0
-65.97962949370408,-203.91601210311254,0.0
-0.6352807249255039,-148.86539637327732,0.0
-60.171296385557184,76.52055836926962,0.0
60.61777109426478,32.96521084606157,0.0
-26.454499975241347,12.295221426734889,0.0
71.89828300835059,-56.40041525932746,0.0
3.8822371407648792,8.543662755068686,0.0
-36.14201000830004,10.633643188769524,0.0
4.034367202959808,58.851612877633215,0.0
67.86715487200956,55.093953863873,0.0
81.24829183352075,-65.42429127199445,0.0
26.945266875051217,39.00637744436912,0.0
-24.055522655262443,-80.09164498327978,0.0
48.55685751654195,18.684979471952854,0.0
-5.346072225246372,21.469133979550495,0.0
34.30429810439933,35.711432357156035,0.0
26.72275958093141,-7.583927539737333,0.0
-28.560939950802894,88.70893460440003,0.0
-123.77854645514476,65.79700684914071,0.0
-12.342530785457067,-74.32292146654365,0.0
47.50247331489726,-18.223183812158222,0.0
-40.34501878697352,16.402436816939563,0.0
52.04499735625336,82.87477683067891,0.0
41.86655320151815,-47.7155336691437,0.0
19.47510428216099,-70.43266531812671,0.0
30.15735476976311,28.18459051140542,0.0
-36.49538150981614,110.44817410749488,0.0
62.331519465865156,151.04382358245715,0.0
-95.7030859633189,41.70175731378877,0.0
69.54111282732318,78.199172083591,0.0
36.35122522158711,1.9466988286800586,0.0
21.533403437962285,-11.56977987450279,0.0
-87.06540462624122,-54.16963677621603,0.0
-50.44702610387402,-78.40854434267935,0.0
-13.827743165276404,-99.27311896191671,0.0
-13.636918549449998,54.0237657166385,0.0
-1.3343752029827631,2.8886903959212122,0.0
-7.0415577946768355,-67.92860893890845,0.0
-71.98006667709451,-6.223893786017582,0.0
37.12582145457722,-1.273693044702604,0.0
-8.1273050026001,-38.1015490802237,0.0
-40.87569263369195,63.93240816951824,0.0
30.198454397475633,21.040138743923524,0.0
-29.61470861377819,-2.6939715117958736,0.0
18.122488945999866,-30.69175225647933,0.0
28.698330278693547,-79.94682170425949,0.0
-15.396105099631438,-10.294441767611126,0.0
2.9517688127351076,39.70732118619027,0.0
-15.702802596419039,-72.82008602896198,0.0
-81.06318211426743,38.975025983764446,0.0
-9.613400932709576,-51.207290093183246,0.0
64.46472710876733,-23.505958885651854,0.0
76.83868799432257,62.353699693173084,0.0
87.7235721473437,38.104930281047494,0.0
19.948495318732903,68.55745749484396,0.0
63.78408573430961,156.1922570617936,0.0
38.932052940607576,41.122205503625366,0.0
-26.636198714178892,90.82147593208656,0.0
-3.569012064137014,119.0400781869656,0.0
-27.39373183466926,-34.26665762155996,0.0
91.57614921040633,-133.34056791767063,0.0
110.41376438406469,137.1168394657876,0.0
-77.03631145297717,40.061100890732476,0.0
-28.456955723327447,-32.49558838414692,0.0
-16.190750163783264,107.36993501087409,0.0
-37.92046478894973,-39.993410559049316,0.0
21.94561060823491,26.33278421573198,0.0
82.54230566155887,-75.6981484035039,0.0
-23.047491862482453,-7.468230004575948,0.0
24.02272223806253,-37.73005731409729,0.0
-19.41749513117054,35.7743116336432,0.0
-54.68101933251492,-40.39263235119097,0.0
13.72765494578754,-0.40457832368171126,0.0
20.758689742753685,133.90405762146543,0.0
-58.45433013197352,-26.46020251205416,0.0
-17.01090784821946,103.97406830712296,0.0
-10.39960391365356,3.5308574087651836,0.0
-24.94575768655886,-80.05257138483154,0.0
69.842957272876,40.00568428858335,0.0
-43.75698713967075,-123.43901028403491,0.0
55.89865835794499,81.09283050976616,0.0
78.06651532135731,131.1863772647435,0.0
59.40765002501084,157.65437854264013,0.0
2.553772657457331,-8.53035180642737,0.0
-35.78345982953505,56.48087484944124,0.0
42.79216036397169,-85.6095473376013,0.0
-86.75937369918564,28.385892062938435,0.0
4.883871890009886,21.123420765608657,0.0
-32.46206705180195,2.1095675745482896,0.0
-83.76743012037286,140.68967733231042,0.0
92.83166633901618,-43.41008469215768,0.0
55.82331090709716,98.35028832980582,0.0
-30.996877424039397,9.740269280396385,0.0
19.535921614348567,-29.559259544527347,0.0
50.665657952454566,-40.17672389707679,0.0
47.4835590506848,18.93528899215442,0.0
88.25277433145908,42.01250358596295,0.0
43.52817191967057,66.88213270638384,0.0
-47.015780046650185,-52.9631654311284,0.0
-12.731623781869573,39.45541902228911,0.0
-10.395859152351726,-38.658905715681456,0.0
36.41853938387636,5.212386135850597,0.0
-17.75887339755532,25.038386562658314,0.0
63.426978097923595,-5.3679381621826225,0.0
-1.3867829073253337,-78.0877075248494,0.0
-31.833844988548023,61.497317511272435,0.0
1.7864673310473096,-32.9805274526838,0.0
-17.866994361756543,-125.98708972474853,0.0
-22.414689174090746,37.846240697947096,0.0
-58.50408546083443,-26.265162663140504,0.0
-12.604266281753926,142.50239882176632,0.0
-41.51656022001575,24.550041867991368,0.0
-94.08849432016642,-36.67226612392678,0.0
-17.343231431401215,-20.808154724675717,0.0
105.55294697760588,76.0912479532764,0.0
57.670755396259324,-169.10295839702474,0.0
32.36173328871511,-31.139950415011207,0.0
13.467792457723624,-39.40757092642847,0.0
8.959306146308643,82.70296508957115,0.0
-141.43695780988827,-5.079274228787845,0.0
92.4244072950466,-111.02323440376563,0.0
33.9033204538379,20.58214832365959,0.0
75.715068776242,132.97753671721915,0.0
-4.9624420455694755,45.71873301998822,0.0
-75.29577579463034,-97.16635196961062,0.0
12.2658274559187,-30.276842485130583,0.0
31.202390580806405,-81.12179847407776,0.0
25.434092096725347,-71.8915267896795,0.0
-7.737786934271047,-18.991297762284777,0.0
33.97697207922565,-29.60702027806463,0.0
-28.490055581401762,63.560611718045045,0.0
51.488417403203755,-69.0236007784173,0.0
14.090154882865736,-128.41428579447015,0.0
15.649050922785223,29.123390084546514,0.0
-32.02491620356434,-11.206272732060867,0.0
-12.761677507191882,62.088500046382386,0.0
-23.67409024969428,21.62253417724995,0.0
-57.741285459724125,-54.736343818733275,0.0
41.61002280338687,-144.93109464736324,0.0
-68.27203454369558,-32.439212724085934,0.0
36.9939894095354,-32.84608511221157,0.0
33.03825798069395,-103.8221340760092,0.0
-55.67532623801872,-185.5161446720124,0.0
-24.877639830124906,10.251717248830621,0.0
-4.072925024678931,4.435275670192165,0.0
-6.286693628353787,-16.632065381803645,0.0
53.13488028826689,-83.8555891865976,0.0
57.93814362632459,126.0584182324844,0.0
75.2220560549692,-100.15606133408201,0.0
-12.407598283417256,28.796810119712525,0.0
86.24817757423764,-91.84016453988109,0.0
-23.91146714015979,3.7311566722711644,0.0
41.14042766204796,-25.09079446536036,0.0
27.101368097858785,107.26742118396808,0.0
-57.26379637677989,41.09771411928352,0.0
-69.74375486641424,-152.44995232428371,0.0
82.88930205110614,-108.25244990396286,0.0
-35.709106965501704,48.71103793452257,0.0
-81.33844053131749,62.87203194860774,0.0
-22.802853393323065,47.80228781429869,0.0
6.795562239563058,-4.466872655334644,0.0
-7.629893577706648,-111.607560873917,0.0
-10.684843117476053,-44.827599891533595,0.0
28.347797157670673,141.76815091496465,0.0
83.66390514204376,29.179962709519078,0.0
50.13632596804497,36.83624662797848,0.0
-54.583477704022734,7.559098216711918,0.0
41.65482357661009,126.97596358224656,0.0
77.67697842388226,-19.57201808880856,0.0
-74.3529685425222,-78.0646108190978,0.0
29.589868198337616,-8.47629250567024,0.0
16.57934044671686,-136.5347576456648,0.0
-64.839162387611,-153.3372636616448,0.0
21.978825185719717,2.3237046162466144,0.0
-44.57898269141577,61.33043403590869,0.0
-54.100219450036924,-62.74664392287432,0.0
47.732282407658836,102.73182791072658,0.0
28.9710607243165,7.658156145973107,0.0
-6.092053679522022,72.46574831016076,0.0
16.067041464965406,-23.30305890946735,0.0
-9.032464185109164,29.032834361969513,0.0
-54.20472860514683,-119.14380312079248,0.0
-19.1047686170598,99.8976125016465,0.0
65.73355170068365,-65.43163580386232,0.0
26.682289624821703,73.5459744891271,0.0
-35.37129784481326,98.44573896718005,0.0
44.86565222845242,-81.71055965914402,0.0
-54.08751536953022,-61.641935554848224,0.0
-34.599537530105366,64.40977054409073,0.0
-49.90296905402678,-107.3258098050341,0.0
-33.7905818598928,92.2407141692706,0.0
27.37743783568106,-112.89280321118343,0.0
-69.00868768048798,0.0,125.52336670374723
-23.996344986080704,0.0,-63.40497562023297
110.454583442432,0.0,-105.60510729142028
29.303627200544124,0.0,-151.81141428331176
-69.64090147547864,0.0,-111.39344881294885
45.66661491234319,0.0,-62.53429104752865
6.824298031414469,0.0,119.96703272644363
51.47024300379401,0.0,-136.12593380657106
-53.81162004608442,0.0,71.3432673594306
92.87859951990727,0.0,31.556786812167235
69.9869811826995,0.0,125.59545257728874
-111.05898698391465,0.0,-96.75740379728403
-3.993672621991187,0.0,-10.69301089840183
-14.937903232821595,0.0,158.26381856549565
54.21351472593619,0.0,-101.30492291683112
43.08691622164622,0.0,-16.241610619937227
-23.619789211177867,0.0,-40.20045662976673
79.77224091696597,0.0,-77.39413047375324
3.8149431349770087,0.0,229.47303418018862
66.71606771086954,0.0,-118.1421986052152
74.11333698590853,0.0,82.13651909862345
-27.375427382504753,0.0,-136.92820730165735
15.759486614906681,0.0,88.09727534037202
-3.0730517317034645,0.0,92.83395952364488
-23.583249251157085,0.0,3.934113111633843
-49.189553637207645,0.0,-40.01598124319051
-30.917563305794516,0.0,185.93573716594827
47.680330977249305,0.0,-51.96041958642148
75.67188767763798,0.0,5.599515989132111
-10.248448901035061,0.0,-193.32841826750737
-13.37665926180201,0.0,3.8944347117674805
85.61492833783025,0.0,-48.23622785658591
-49.56078325611926,0.0,150.04997919435007
-85.79496143568377,0.0,-87.47077052289902
-50.89148714443568,0.0,157.78579696615492
89.84499600834502,0.0,79.99771022758003
-46.68007633379622,0.0,23.249566439511625
28.529515439979836,0.0,3.4254391318932544
45.25243104744238,0.0,118.89131345866006
84.10255956255824,0.0,-22.814824944622817
36.35880895434745,0.0,22.950875394647877
76.33424554533708,0.0,42.29176865439492
0.29167378720925796,0.0,3.2335782297241007
31.465947425704705,0.0,-112.94864254232662
-32.32600146749315,0.0,-123.66848151653778
-152.32679139670051,0.0,124.12055170269807
8.497885484992324,0.0,-50.86785579748828
1.1541254748916892,0.0,34.64444940061111
-4.33275517428209,0.0,-67.80214446098755
52.565509135890224,0.0,42.538573693150546
-100.8938284204245,0.0,-148.94688399153216
-24.40775014103663,0.0,-77.49076063266806
-5.079199580093379,0.0,120.0533725003362
-14.605976593971661,0.0,-185.91119691017255
34.61390440526145,0.0,-76.22542459363441
73.42604749671489,0.0,-9.389780517777176
32.42969138731402,0.0,-17.72933038064227
-9.836925856929941,0.0,-5.714826260788418
12.324003380949284,0.0,147.40716042312232
-7.742937728512802,0.0,-51.36727516957274
30.467613409296767,0.0,-76.53758714650735
19.580278619144963,0.0,-38.09813610536455
2.9816935907696203,0.0,58.581521095782485
-44.34621795048301,0.0,-31.854553316826163
-26.187208848817605,0.0,-13.094780142768164
-56.919638113806016,0.0,-60.134290663457605
-8.098450935347723,0.0,-24.813804128896724
-12.037422060213359,0.0,-25.615325531602263
44.329149767130595,0.0,-12.728554976715548
53.80298052517693,0.0,-59.470077186245014
-4.63383178486868,0.0,-48.94627804298378
-31.430621254498487,0.0,87.32881282219006
-6.41220351633313,0.0,-107.756256114601
-23.491727938125184,0.0,210.9785505003904
-19.708598875519932,0.0,5.907047453713414
-62.707242944758576,0.0,-28.261728119273215
11.452740352695221,0.0,-22.653935737826522
93.39996607013674,0.0,-106.33948334436133
73.49006093911906,0.0,199.1218256939703
-37.185625955221134,0.0,-49.51620946098775
83.57488223258353,0.0,83.58973764160757
-91.52093947808508,0.0,192.41567199596844
-28.065242423837983,0.0,44.76718204111827
-26.13393780814969,0.0,45.54244824391143
-46.99151268114987,0.0,34.74611262352392
111.57529283217251,0.0,187.8891773456387
72.97121826114812,0.0,-102.26918140494921
71.42757275578676,0.0,-41.218925651043946
46.81664988686152,0.0,-131.4245938761071
32.99211881426616,0.0,-115.54423488792253
-30.8400256810334,0.0,-130.35482196905693
12.486139936266225,0.0,-72.86786683187422
-24.076846585635074,0.0,60.86513955257172
-63.061807313926266,0.0,-23.332947960167736
61.414847032244836,0.0,53.52235616107272
-3.622344890564117,0.0,-38.62239223957404
-41.367239453213664,0.0,-64.98432524929278
77.51216192683458,0.0,-17.826531687263753
-21.768797820165698,0.0,-109.41242895463417
116.49408811105128,0.0,-72.35269805835324
-75.91321025570329,0.0,-80.479697857172
-34.36428332577741,0.0,309.0430580490012
31.485857342406366,0.0,43.10213762824231
-16.255850939292102,0.0,78.90989046583705
-85.18050054409763,0.0,143.48740973183874
-76.79049343564158,0.0,253.7941004705831
-55.932185220447714,0.0,51.88028539141389
-43.52838131329133,0.0,-92.23008853832725
46.820295316788254,0.0,31.581676242968975
12.762490721029254,0.0,54.219463731575516
15.836914249607641,0.0,-180.7716969786371
-18.917523187277542,0.0,-91.38912175567944
48.94516535803155,0.0,88.7682554132578
49.708004320287166,0.0,146.34601648264595
-44.56171862874025,0.0,53.01841751479856
49.98495747880714,0.0,-98.47385259697641
-71.51628538025926,0.0,94.67002483123065
4.139598278808741,0.0,-36.58441206193052
-7.662455969694873,0.0,43.302715590381716
56.660127822980755,0.0,65.77561665357285
66.06552531812302,0.0,-23.1603370035073
38.24846178643243,0.0,-47.02937716008186
-44.37876326616196,0.0,-130.64070785879068
-24.481291043991263,0.0,-74.40629007508177
-7.729547260251908,0.0,64.33373938200012
-86.25209954775218,0.0,38.47564694202292
35.50889645910176,0.0,15.399995910995042
78.25144555365509,0.0,43.14478549321985
-27.685882201620537,0.0,59.4252114710996
-12.186111264589062,0.0,71.06133914434785
28.94956797806138,0.0,67.19004956146016
-9.287686255826927,0.0,-69.96071568796992
102.21128745935881,0.0,-66.6825795468955
50.590620078688865,0.0,-39.39659883374488
-4.577988621652228,0.0,78.00922998973982
25.240599104985073,0.0,-25.501142402601587
57.41218340041054,0.0,105.62571205428227
97.29532810130593,0.0,133.0117410714858
-5.0264037416293315,0.0,30.296703516388792
-51.1641508868514,0.0,-25.98819983986505
99.67623478787804,0.0,71.6804786562757
74.7925002690717,0.0,108.45723983056558
47.4133159348005,0.0,-100.82593254848429
8.667157961137473,0.0,41.20378788905886
26.433618209921644,0.0,-72.84318942975143
41.3920803385191,0.0,-61.74720124436876
46.72780797394387,0.0,81.78278854159225
95.83790744792749,0.0,-100.29507489491426
-97.90662336888245,0.0,167.85722751248557
32.94253446941074,0.0,177.22721164799825
5.505068707924407,0.0,-152.39425653544583
-0.6166075359023179,0.0,-35.50617403057309
-109.86037059200937,0.0,-201.05090329430595
-40.59188722158616,0.0,-26.709440829738618
51.80116576539364,0.0,-54.32086385968998
-29.551965753510203,0.0,-29.826946857132548
-24.313941287189504,0.0,-83.31874680551164
20.620689278666624,0.0,-92.47207971437597
86.51732102287546,0.0,51.79520777218878
73.10415032775252,0.0,97.93153664757781
46.53401585689797,0.0,-169.59863797038423
135.19679702181506,0.0,-26.77680377844128
1.4698147537900255,0.0,112.52838910028353
-28.294596242139637,0.0,53.77148618372962
30.117385058845237,0.0,150.61781329944688
-99.8645057154637,0.0,77.22966848262331
25.72281824403635,0.0,84.04403093974005
37.572230335960924,0.0,33.802084195650664
-71.76792377002253,0.0,10.737499661308197
-12.626489904638266,0.0,-13.297223608851963
-2.565389204786606,0.0,88.32881961203611
55.14108115467532,0.0,-12.345399170571978
-80.3695785290128,0.0,70.64168045402654
67.53780449307324,0.0,-104.26383826136957
47.37258728511484,0.0,-61.4638740377895
55.80898555167588,0.0,-93.39251159847316
-4.734277920136746,0.0,-63.934297062441075
45.312288362792536,0.0,158.44263710504634
-42.87238756882189,0.0,-21.567958948014578
-3.6110882785160956,0.0,38.99368210142168
50.626171883253946,0.0,-80.5419706347006
-32.98848004080096,0.0,116.64989566443538
-48.79733351430681,0.0,-114.42436619715511
-2.50629379681942,0.0,-113.89315435226284
-19.963689568414818,0.0,-56.22217400578722
-83.15310060346667,0.0,104.30771873599154
45.69609909567844,0.0,-8.82553050311638
116.29452158125497,0.0,165.82904586086983
37.868834462165566,0.0,-88.4634346505942
19.96427101217006,0.0,-72.23944423850156
-8.037368951489565,0.0,20.955944517163136
-49.02674266361887,0.0,0.6034481857532151
37.41395072162197,0.0,-35.85576979329176
36.44786258124574,0.0,31.251316408905236
-126.58827720287655,0.0,-22.41489183062805
-19.191779273502608,0.0,56.21138218162539
107.92068781784569,0.0,46.34521960907809
-43.38630764865516,0.0,47.35167952671785
-3.928392983756965,0.0,8.428892897183541
79.18600321850924,0.0,28.5870569593389
-64.62630937755259,0.0,11.958561373893545
10.466904614448294,0.0,-25.418330617315416
75.18172903807474,0.0,77.06756558615176
-52.12228977004819,0.0,29.776347581445094
-20.090630927280763,0.0,-19.671872284280976
-21.999041649048245,0.0,10.783494813531291
17.601782680518713,0.0,78.8521150984036
84.58631885224966,0.0,8.878630531915782
-85.62686723209153,0.0,-98.72879318468398
46.867039357556735,0.0,149.57365400997423
-5.760090726138147,0.0,-142.65031966682113
5.659233300025732,0.0,49.11356132640739
26.629813823429338,0.0,-90.95689579961821
26.639245606757143,0.0,62.81920649880214
-36.40152747256111,0.0,-75.0748120746429
79.89668782642659,0.0,17.024055137924776
33.455790573242375,0.0,75.03072064614419
-5.370574352299719,0.0,27.160273239814348
41.5436746901956,0.0,-16.54461014957843
22.438672925691094,0.0,-20.85441766716094
-19.008209025446344,0.0,-42.76697114487439
49.716883506074744,0.0,-69.66961878827715
-17.942790101560714,0.0,66.2369971047528
-11.647847450969866,0.0,-121.20550806857045
-18.703850351395587,0.0,-24.48294000332837
-14.35201837227374,0.0,170.04705231875832
1.5695109686901842,0.0,82.64245587206553
61.77349920650694,0.0,-38.7030421621609
13.121605807837176,0.0,101.29521083025419
-81.67008432076564,0.0,-64.5606946322992
-50.87743309952701,0.0,16.44447932409801
36.29638460356379,0.0,79.43922146690991
-58.78765767170143,0.0,102.46637513972522
51.52785486621807,0.0,101.94766223525261
4.618397580808443,0.0,-101.22954801395888
-97.30073942840946,0.0,-112.64436082352495
11.907569024727396,0.0,-30.60903241600908
-30.16146280147315,0.0,81.50694542801371
-34.347389177792685,0.0,-2.4134898411549264
-7.860266259891957,0.0,140.65523767978146
-31.428772217251733,0.0,1.4077906796764195
35.96239310531863,0.0,-66.17501813532249
-39.868594076124815,0.0,-77.70662170364616
-58.59398521945788,0.0,-61.09847093872414
-5.9554012176524305,0.0,-24.322648741958375
-78.31645301972718,0.0,24.9564117882525
15.943808768247905,0.0,9.319816693435513
-37.92601814919185,0.0,82.218449102026
81.25084388344078,0.0,39.10610508565147
76.45079049509702,0.0,-120.7817189205757
-20.897330248490924,0.0,77.66152394130398
7.698142675083897,0.0,-69.1682899466761
-79.77999582426756,0.0,107.71235942629893
-118.6853547533374,0.0,17.2235657198827
18.925043273350354,0.0,29.09211789777699
-29.540094483977384,0.0,70.45542044123349
-14.784234320380554,0.0,50.880197763682084
-92.49285966541296,0.0,-158.67672356772337
13.666221356179689,0.0,128.6792995028593
10.282706938249886,0.0,-116.11228644690325
36.254379032713366,0.0,14.773999802798397
-6.613992184219394,0.0,131.9391906794649
37.66059060467647,0.0,-19.667910716091484
45.42195732957738,0.0,-131.67705671984803
-84.30739349691316,0.0,79.11457290185943
-34.1798571519225,0.0,-122.3086897129981
-0.16795833823326556,0.0,9.738205202178653
-2.82560375474642,0.0,53.62696161188135
-27.955956689156462,0.0,136.80172765623678
-24.729799850905952,0.0,25.96389703169367
9.941338149406691,0.0,-83.38548161062083
-32.62712966030583,0.0,-14.443896846187002
0.2588177611639326,0.0,-10.85158260209875
-3.621106476838074,0.0,-28.667239741082923
16.1402839869315,0.0,-75.55834812191897
11.39826369718573,0.0,-32.51244134585822
-31.69200574725885,0.0,-102.44111687231256
14.847383270962277,0.0,-71.11277240193108
-12.424065746653602,0.0,55.06823746613157
-70.43167634403093,0.0,118.87013689084549
77.15098795725217,0.0,-52.185683378937206
35.2955803542629,0.0,-29.27370636587456
30.79458184028464,0.0,-135.7815871738241
81.32945273336455,0.0,59.683428117508065
-61.021999491789394,0.0,-13.093461001705913
-73.26940985108102,0.0,161.56622971458074
4.4893170590732145,0.0,138.53102608503414
-15.701034399117871,0.0,-134.1559976029372
39.88342060996596,0.0,-60.90159072402674
73.94775359631282,0.0,64.12301392556783
-12.065819847589351,0.0,87.40137343451393
-52.637079982341476,0.0,141.66992757075346
-58.9655256453827,0.0,-72.47381134466715
12.666024272457483,0.0,-85.23941514470773
28.678931225962955,0.0,80.47673746967673
74.22389121504571,0.0,37.03179672243445
4.184330446772524,0.0,82.28745328220194
-5.13239312203861,0.0,-1.285008291821653
-3.0023611640428993,0.0,-1.9338785087428856
-28.71067487742855,0.0,-11.202730145529012
36.40719927244295,0.0,-22.42679587989216
53.63812150497211,0.0,-79.95574196932729
-42.06922884102094,0.0,-46.6557571522781
45.857201602366516,0.0,-155.74709626743189
-62.46184915620664,0.0,-53.24663422678575
-7.901704227268855,0.0,-59.88791872818464
49.87461528523791,0.0,64.96126218930654
-13.289163626793577,0.0,16.231441692128726
-14.716405861066592,0.0,115.94463141419276
4.1009761683901145,0.0,24.39925911625452
78.16930351920016,0.0,-152.22461899802622
24.777300024425067,0.0,-116.12497057200521
-6.8036271196438545,0.0,35.85542680244626
-12.607571145288532,0.0,111.38905208851834
-73.81362404247245,0.0,35.813969172243546
70.00080234653382,0.0,-121.27995375242301
-69.03102504689464,0.0,-15.213045531038867
-121.71160329649567,0.0,36.72519326545966
21.431944154706724,0.0,-160.5974985342286
69.36035142052917,0.0,-25.011706059375992
-2.70854367204614,0.0,-139.38450250961634
1.9217198607638744,0.0,28.953854729354322
101.97184492061582,0.0,-202.35983255121488
52.87469362162083,0.0,61.00217688115818
-40.93933153663688,0.0,-1.0497563139469017
-42.22725666903946,0.0,-117.8529951094462
-4.43962743875004,0.0,-54.586233172776126
-34.207830802934765,0.0,-59.80078307210346
35.0702928526652,0.0,-75.19603260504636
-16.712018563904746,0.0,36.99946773462195
-7.200536132435954,0.0,13.526845709511806
74.86353891208692,0.0,145.14781574006307
-96.67878720099031,0.0,-113.51492922439158
-34.722868365419615,0.0,15.21282187597056
58.88496519519081,0.0,60.865952913774024
5.4867589229191145,0.0,29.531297436778317
58.178330083560034,0.0,-48.28047568211008
13.139787774400203,0.0,81.10423154870819
-70.65573212190152,0.0,35.67515090092211
38.87482004712389,0.0,54.86999223013052
5.2615384269343295,0.0,77.49063128726795
-3.6119706593639265,0.0,31.355947550282643
-19.82162255115421,0.0,-19.554680353900693
1.98498736700183,0.0,-115.3946745553071
-63.94105310142304,0.0,-14.42573278918798
38.490457320351844,0.0,230.939690281872
-17.30326897127786,0.0,-8.601456313793339
-31.448635871819192,0.0,-102.35723730042233
79.42958924216327,0.0,8.141340943486558
13.996558689411959,0.0,21.467326660519735
24.61697368463386,0.0,197.5597561826581
14.93925719388656,0.0,-4.833459739630504
80.04256244724476,0.0,12.140619330959797
41.28218722810046,0.0,-66.7483940283702
7.953390587202809,0.0,-92.85751416510038
4.788498114650234,0.0,67.21541092177044
-78.44160671189843,0.0,9.22179808259471
-27.448297798569644,0.0,-107.68110517481308
53.52030973933866,0.0,-52.75098682658632
-79.37431723669769,0.0,-63.277659169749015
-70.3458955555965,0.0,139.69035488429125
-62.89352524970347,0.0,-83.75267728761808
-80.19191850158917,0.0,-29.503791545514144
83.62684751921167,0.0,-64.44096248869303
31.150674614944148,0.0,-29.99751836326969
32.39520466901661,0.0,-53.182002580240685
-133.20839405756303,0.0,-74.11819263609078
10.194460922035088,0.0,148.7991376900345
76.05424554568,0.0,69.42279623428057
-49.89755719218067,0.0,-125.3143688633767
45.64635494710906,0.0,-67.80132932859664
-27.232605036911036,0.0,-85.03699635179493
3.1167326147324856,0.0,135.38385613563173
1.535460666144122,0.0,-82.952971940153
37.81315988688017,0.0,-81.2103929612046
48.122250663825085,0.0,-205.2022838523244
30.359499535515216,0.0,52.323809274663155
-15.400688130108945,0.0,-76.88760217041394
13.00070760412589,0.0,-135.3087550093746
74.91993821074678,0.0,76.93212455836303
-48.38734572624866,0.0,82.48494790382986
-12.9790312728336,0.0,1.527004962305388
9.51620729237488,0.0,-12.583069178875908
58.95705802818004,0.0,-42.958451902438455
-27.892893760377042,0.0,-20.244234959625203
32.210435792773865,0.0,-95.64206981751808
-66.80227453553927,0.0,13.037400355713597
34.6346392569352,0.0,164.1905150829867
59.36240242003309,0.0,80.82649374038803
-1.1727390348848283,0.0,-77.07243967850924
-0.6760014949000597,0.0,-59.80571131485194
-53.40476453593182,0.0,38.98433865859359
112.81698713759513,0.0,24.495796772001988
-6.196129996040291,0.0,-36.97030324212482
-36.98251714883944,0.0,-5.803162296492235
-30.602148727571315,0.0,-83.84410234988728
-5.511215967943948,0.0,-87.10075846611151
101.36566151579798,0.0,-62.173776240028985
-27.507855288002997,0.0,68.09600465639697
-29.530142946603412,0.0,-65.11174736117289
-2.794751708201045,0.0,-44.5671796928865
60.607080622001774,0.0,99.53181556836027
-84.55483945394953,0.0,-150.59587164519544
13.902026683164726,0.0,-32.493074801179176
-2.778776829233322,0.0,37.70237575920433
19.599401492093406,0.0,-18.725904838800147
6.153809954203667,0.0,23.984413271643103
51.96897305190977,0.0,-89.44312103527953
-111.19128439069246,0.0,76.41989533736
21.34129182100671,0.0,-47.10647953897666
-44.81264731623483,0.0,85.51412547514538
-37.302797704227395,0.0,-163.81691923010948
-53.39819154722808,0.0,-133.45717387664604
-12.609687983746543,0.0,-116.7900358267077
42.910695414244714,0.0,-31.008992517309636
-9.128457494921893,0.0,7.374166997132646
-17.131237625808435,0.0,21.007248760639214
16.90424924955191,0.0,34.94787424792661
101.56170638258406,0.0,-12.83434147076815
-93.1438234454685,0.0,-46.90441149303718
-48.73843698428269,0.0,-38.33949817605659
-33.69192626837138,0.0,-0.36628277301785717
-62.78862248606541,0.0,-125.71344232637934
8.342469235992798,0.0,-91.44728030028995
-6.23125878299814,0.0,11.910650272622359
13.39090408580553,0.0,-133.02046155409062
54.174753591155365,0.0,6.237985807275319
7.8012579363992085,0.0,79.51196192776885
-14.270094353914187,0.0,-97.16286441420915
-25.661575958364537,0.0,274.1084769022224
-9.382294370660867,0.0,121.67200502597224
-42.19443567082839,0.0,-52.77390778797257
-45.02628331740523,0.0,-19.83865687448767
5.273060457356563,0.0,-160.85619031496142
53.86171790025982,0.0,-75.5541363397443
6.796362485580622,0.0,-68.11120158451959
-42.823734470755916,0.0,-125.97887062560784
-65.73819653634261,0.0,-66.44993016304575
-44.20643389653215,0.0,-49.936907724914654
-14.914310713300674,0.0,-142.92314469531593
-0.05574344351133735,0.0,43.340348444793335
-33.77246605286927,0.0,6.91855655703472
-22.870608135347613,0.0,-55.11627201966175
46.63881846708868,0.0,-99.5265705079802
-101.19756983646381,0.0,173.430367140034
-23.333032999731294,0.0,87.51569486229914
47.74207461310502,0.0,53.281220655150555
12.54632581909591,0.0,-10.336753033982905
-40.82069884309498,0.0,-118.68875746727485
-15.451808859701757,0.0,-5.602993951428412
-39.97731430261054,0.0,40.80025571244131
-26.029640865128673,0.0,-70.18477068191201
-24.667135187213542,0.0,-46.10926058356795
-48.15987847052417,0.0,36.03287946159528
41.97108253058153,0.0,25.983694180211813
69.61760587678016,0.0,63.41722940446478
54.60725349080813,0.0,40.8173105558242
27.822076743775188,0.0,-69.89281293774111
40.075803306526744,0.0,149.74978720571144
-24.116685408303088,0.0,-158.1251696081459
33.750277527868846,0.0,-40.79331802707674
28.13250141842442,0.0,135.29586273319822
45.85960952688601,0.0,4.621438889844342
44.56506778148198,0.0,238.51845863938817
-3.3016381713604583,0.0,61.74429883555806
-42.48024255169182,0.0,-91.49068952819239
23.491156724392457,0.0,-93.30744320395945
-62.31917197922583,0.0,-19.31576922551801
40.646177448885794,0.0,-39.1249078683137
-43.57061368271749,0.0,136.49069060312215
57.70333099260748,0.0,-96.21357014958741
-5.365464525208111,0.0,8.690903827492694
-34.08057921969696,0.0,68.7813694350122
-21.685734852464197,0.0,136.72563158573337
-45.792172343836626,0.0,-23.833201808314538
103.5397224926349,0.0,1.2993285214701547
-16.887725991210427,0.0,167.51884994672557
-5.059979475810213,0.0,-20.173116862425687
-69.32868876938215,0.0,75.39718314003827
14.720089761623708,0.0,-62.92426589898424
98.61743181937904,0.0,-37.388251749646315
-51.18599707027145,0.0,108.07223790497424
10.662730663819135,0.0,148.0045648180674
5.120896335461303,0.0,80.54363703845678
-24.489316030632548,0.0,34.088329375816194
-76.32905334347471,0.0,2.9470134907661665
-65.19281857676496,0.0,-105.62753535116987
18.707638956829637,0.0,138.48631035813887
-16.7716147026084,0.0,150.60574639085613
-40.75994445768101,0.0,-133.29896478149382
-53.080652445347056,0.0,-23.88725911056134
-87.05677340884574,0.0,-12.178465650321348
80.29017274264893,0.0,8.597805298376846
83.80850250792663,0.0,-43.205826339428846
9.526079360664266,0.0,-49.38055751076948
-86.27016029490477,0.0,-101.82944216507863
14.09108304388813,0.0,-190.0738811233108
38.811887463084396,0.0,27.06233419749067
3.83541580622265,0.0,-45.012047117921554
13.957315376096807,0.0,163.36542837927672
-20.432154123102855,0.0,60.21358748969236
-28.90566377729477,0.0,95.00155115876467
-103.05617725573113,0.0,-62.165337324160376
13.079226945836792,0.0,-109.8671656588422
-50.226603777729714,0.0,7.113598150137152
-91.6449061567009,0.0,-80.44230050262678
75.84599094574274,0.0,-66.61725530472883
10.071809033078214,0.0,-2.0214041912530614
9.182678094910644,0.0,-21.96986848051721
-104.34503819701115,0.0,-34.41547418078228
16.812930246355855,0.0,-26.45258274417266
47.78330981492558,0.0,77.04697715367627
-20.423911477741715,0.0,-21.27257190910131
64.04022107803218,0.0,-109.76885585852314
30.79173406849089,0.0,4.101213685591094
-7.561407779567938,0.0,21.05758931479822
-14.814057797518402,0.0,-84.3054105387594
5.393794868772731,0.0,-126.60865248598995
-25.08015231694969,0.0,31.839953121127234
-23.07192091599923,0.0,-12.469197987644804
12.259501486620843,0.0,-97.09239908818557
-17.70918682365886,0.0,-56.09360133493486
7.21719928085313,0.0,-113.17293342109218
-17.078155414561333,0.0,113.380650235546
-33.31277716139087,0.0,6.48973045413398
64.30170733654688,0.0,54.447803280897766
37.8941444182907,0.0,192.3029429373587
91.10863907730453,0.0,-154.3620124064491
61.44728854404179,0.0,-83.66824971083804
-35.31584105292554,0.0,-138.2942602042466
-34.55532345388742,0.0,39.970393349869695
71.03857439383974,0.0,-35.98364326123781
-21.32165809570421,0.0,2.8160994318557364
-2.692731106631743,0.0,53.371333405360566
41.393088263142005,0.0,-112.59789526740477
-36.717030656144225,0.0,-30.793404743305583
20.16616953058469,0.0,93.38482660629084
9.375538715791016,0.0,58.8622898977034
58.743024689708214,0.0,58.83314009238199
-29.360670745914312,0.0,22.204012979990456
-89.64745303746217,0.0,1.599945637255601
69.89624370521837,0.0,-140.3942227747004
39.53976903551199,0.0,-18.340742587336663
15.776691108905286,0.0,84.54412468715877
29.265017132775363,0.0,76.97842516052587
-31.005061127603323,0.0,42.7791947041358
-7.233236571872196,0.0,71.27140041516886
59.05713503106643,0.0,87.94656333372802
22.62645652291991,0.0,-214.8341041657244
32.95137982609395,0.0,-35.506455956387256
-7.946175002715049,0.0,128.60182057249423
46.9773728256289,0.0,-35.6475907691327
-95.84618455246753,0.0,72.71377577490387
15.17571474617984,0.0,-1.8279607095752155
-65.90136715987099,0.0,26.888006074293234
34.45394541661245,0.0,-72.82345096130557
27.444364899886576,0.0,91.21895409492129
30.900137986555308,0.0,64.62373044647812
54.949788375880594,0.0,-12.979701456667959
27.742242936867946,0.0,-35.60945786706493
-30.6056225893061,0.0,151.86632877139542
-46.96631673753171,0.0,13.712877702063194
9.406009410308648,0.0,227.20584520521908
50.052816791444855,0.0,-10.057002683718473
-7.54824759655845,0.0,-112.05610107351437
21.298906730366856,0.0,-61.61065102072937
-81.83589813972004,0.0,-30.3319160748955
7.082302914038392,0.0,-141.3556818595424
25.92553506469033,0.0,35.194265971188536
-19.545629078396225,0.0,-67.95447721230363
-28.916438467715217,0.0,59.92059595873759
0.8581157740400734,0.0,79.74148161734156
-22.74285740757653,0.0,-107.3029782215519
51.29580529436699,0.0,-107.39924477002006
9.737827676843446,0.0,-44.862070601711764
-59.21088877344912,0.0,125.74462677945134
23.013107203370563,0.0,-40.20159164616595
-40.2699587350327,0.0,5.514240063883017
16.15800503521478,0.0,54.82151849321106
-54.67786233761282,0.0,-60.80699595755695
-22.56660272064516,0.0,-24.711808869482546
-100.2089482857665,0.0,-30.55440822143228
53.59817314534372,0.0,59.0604520580668
-7.747636253505169,0.0,38.940618495101994
-2.75675798884711,0.0,-109.68661251486124
-25.557545093788946,0.0,-18.555963827896683
-36.471414319675915,0.0,-211.16459748692517
18.545991440235575,0.0,-199.775411030655
22.635509608843712,0.0,-33.942971915446336
-69.73485022344494,0.0,244.70794909232708
85.11424515631455,0.0,104.321808234445
55.42958493577047,0.0,33.62760398077141
1.7944795863325784,0.0,-63.346761553072625
138.8487895270676,0.0,91.96477134366513
-15.693898216562966,0.0,-119.46033684186493
-0.4597374044145471,0.0,14.890267352925662
-8.013582996698226,0.0,9.744141035050513
49.16519807973178,0.0,-205.86208600136231
27.65824691709911,0.0,19.951407473206473
-14.19480272659154,0.0,-44.17548858691044
5.024818991986986,0.0,137.92519722630288
82.74322015467529,0.0,-66.88196288557992
3.0729834574449364,0.0,-63.73670022581924
-13.879079522689294,0.0,-96.74769568694934
13.374325676892418,0.0,-43.269022590526745
2.5288613333207492,0.0,5.82719665074365
-50.12663150710958,0.0,107.57403856125858
-28.191797629672173,0.0,47.945796336367486
-23.1268900890251,0.0,53.35291371197742
28.985835990798474,0.0,-19.175940443331793
-64.9983203785885,0.0,-4.063020455012541
-35.1092401636757,0.0,-95.34330614998979
-75.11598481983022,0.0,-22.261282362496218
41.3357052029173,0.0,14.734041941687723
-23.047922479461565,0.0,-14.784605428915452
12.3732148250009,0.0,-182.08533623237298
29.87723425539535,0.0,81.31934974937431
17.468467211074078,0.0,166.40537220757864
-42.403535330302766,0.0,49.219017352848496
-41.92097783565886,0.0,-9.095908989112854
14.586860861242917,0.0,16.96132508565345
-12.60045258588197,0.0,65.19989647628563
55.23854118937071,0.0,100.1416016275946
-62.98316320143341,0.0,-66.395036872664
-34.24252237371863,0.0,-36.125868834297215
-0.17075383254108398,0.0,83.52091087496221
-41.63216116494757,0.0,-2.9334926372585306
78.12269596650398,0.0,127.9003632030067
4.455143788908233,0.0,176.5519270449539
-13.941885908545027,0.0,67.01157487773446
18.226024486402697,0.0,204.87324893187366
58.24207690868133,0.0,143.03954899668167
-37.84351286568631,0.0,40.677783475244865
10.251023647943565,0.0,-29.962862324226705
-54.388388396307754,0.0,118.57641892987986
35.81535572893489,0.0,-25.028697772860955
16.130842971739927,0.0,-56.103085165992624
-15.925115901672502,0.0,-17.730656531056397
101.81281175690837,0.0,84.11800255849776
28.771127765353416,0.0,69.21583163323704
5.626112854773988,0.0,69.77409815993738
19.912750377373627,0.0,-137.10729279697406
-37.1678928187484,0.0,-150.09007230475663
43.15306972401918,0.0,-55.91513554988062
8.655525785037616,0.0,51.67675648581802
-27.95090323778683,0.0,-47.985271402079654
-19.698647504398565,0.0,-12.666680024466913
89.93041472378121,0.0,-7.3574481724194944
67.94022506987476,0.0,42.64817203977896
2.7407111585910586,0.0,140.40179666155953
70.03133844321204,0.0,-143.2687179149836
-8.192633718949773,0.0,-229.08983124822498
42.44992844857175,0.0,-14.303830657468955
-32.54902062082509,0.0,-8.823092505329297
-96.34568671286982,0.0,75.13766636126692
-19.10939531916802,0.0,183.1927373122564
-52.581126756581455,0.0,-35.39022894930826
74.57175159511314,0.0,-143.11245637538192
-53.846786633649955,0.0,8.003712089543567
-2.37622971938171,0.0,-73.07540540136597
8.267620693257607,0.0,-4.1687289258818385
-33.36288638181878,0.0,-79.8943801932882
47.40499109517508,0.0,-65.63923878339604
24.640164535737945,0.0,-23.776082904823728
111.32939498275856,0.0,-3.0074624082108468
-29.74051063515832,0.0,147.04729610218513
-63.765012158882826,0.0,-23.905665634370568
-14.214210225965973,0.0,40.24229207597559
-17.171425458713557,0.0,77.36671424626209
10.991410673706339,0.0,81.15224085960882
-28.11816299033144,0.0,69.24768276790674
29.951302364990624,0.0,-40.79488597484292
-86.83906945805737,0.0,7.909469188109729
-14.002004350070127,0.0,27.98307763007274
30.758842497099003,0.0,68.86148964551101
-52.20485155738721,0.0,-89.88175451148594
11.764321853933048,0.0,-35.59343652173048
-33.47317100567568,0.0,86.66090710919794
5.382197430471414,0.0,-0.01859910639711482
86.38908660569604,0.0,-88.7930371707351
26.146437130068485,0.0,101.69084124086821
-19.846210242639447,0.0,63.517606095604364
-33.49508417160798,0.0,-211.76184354320128
29.493083213323512,0.0,-52.91613344685963
-60.583447142629396,0.0,-64.6504051090118
53.85278856721515,0.0,-58.05794597536017
26.448120329270896,0.0,-75.94336738433246
63.600856044782304,0.0,-26.853110752565904
50.14044454366253,0.0,58.4571947022499
18.47231801070757,0.0,27.341559316747933
-14.24008979886206,0.0,80.72749088839367
-13.544863594291831,0.0,35.04363806256099
30.587750229373732,0.0,134.81608498760232
-113.73111020478359,0.0,-28.478091120934224
-5.714247096605099,0.0,-5.443317812964116
-4.542537697053482,0.0,-54.402955890188
63.07154068937505,0.0,-20.960923919952837
-3.6766994252300242,0.0,37.12403091810123
-84.80182909288774,0.0,-167.5157106091411
6.307482188885494,0.0,-30.65639503144301
90.29745983248047,0.0,-6.070187360623862
-12.109485616107216,0.0,-28.699312295762507
21.188185570975133,0.0,163.9128431267377
5.375050998471781,0.0,-67.54250940993789
64.88688823677519,0.0,-60.52111746724472
39.6425682076161,0.0,58.88047707691314
4.798809552141976,0.0,96.95260813209596
79.12323541152274,0.0,169.53199382815748
-16.98339100343422,0.0,147.1279568227743
-47.09931258618138,0.0,-110.03258031477193
4.3009886148276175,0.0,62.3418863168159
73.95140635756837,0.0,-4.6318704179777725
42.0730090814423,0.0,-35.41254554617074
47.430571224056784,0.0,180.82639682576286
-6.7533508836206515,0.0,-38.01993802091751
-54.11975295901755,0.0,48.601055044036606
-104.5026430921969,0.0,-126.84736826599334
16.504115164578824,0.0,-130.4908357499556
4.170979354543046,0.0,18.09412311837116
100.76166548644,0.0,55.86065761122071
-34.09256819858354,0.0,7.364322721771747
-64.9067367314002,0.0,-167.63962641801209
47.01257894373387,0.0,66.03446451574426
-89.12451322653004,0.0,70.11495599416251
-41.81425506872476,0.0,17.88023046448653
-3.7267059685884987,0.0,-10.950728539305953
-2.3517423552422883,0.0,-120.36716758644444
14.379023779359157,0.0,29.31815730511194
72.10309346704844,0.0,-49.689532510218115
89.63525886834626,0.0,55.50021392546136
-34.37157428195478,0.0,112.63306912227398
-10.616933264070168,0.0,-139.19384431209946
68.07367765930948,0.0,-67.61381889216733
54.170197271387146,0.0,-68.68210910677874
-38.75268890141053,0.0,-73.40512106490664
-48.78721020457903,0.0,-38.57028711154038
34.56923795395332,0.0,-115.69391836694766
86.2460193651844,0.0,22.780041057209218
-27.383129153641626,0.0,-130.1127659965621
11.516021956834672,0.0,1.7151005453019803
-8.489152161358582,0.0,98.65752600574189
-16.021723412895472,0.0,31.837694452427602
-86.53461141097924,0.0,-117.11385044294737
-84.11579145718683,0.0,-43.61518153163648
58.79460415855956,0.0,-30.205182642380638
-0.5858894004110539,0.0,50.92037081115746
-19.3497097189065,0.0,65.88091467010432
45.96646519413935,0.0,51.97219759622877
74.89235150963516,0.0,-27.40273833902896
20.62826144691832,0.0,31.510258847044597
-7.9840349035268074,0.0,21.50268690327005
47.30878520431265,0.0,29.381889103114098
10.068101646835089,0.0,12.297004920440317
8.874189888122633,0.0,61.71963399574864
83.31740282021424,0.0,27.182492095396118
79.47175892332868,0.0,-6.0573725694202665
9.02201057398296,0.0,-68.20297513949859
4.679910579619052,0.0,-76.78475982948112
-8.457951548135476,0.0,-95.392368944957
-36.21035960243654,0.0,37.706951828990356
26.051537431523414,0.0,-220.59953603986472
-28.306363784450596,0.0,89.87242489566586
-34.77700505925839,0.0,96.7053224996111
-2.385358369537723,0.0,162.74535660981942
-22.058794216610703,0.0,-40.312424487404776
-55.40643034213345,0.0,-40.618466197767205
-32.785608894732235,0.0,-45.09168783374871
-15.05455780982928,0.0,106.0810223415243
70.95935078067492,0.0,-60.902850962398205
-7.755387764232931,0.0,-86.55274389049862
-29.711359694029092,0.0,81.42300169515835
-37.622463948434444,0.0,72.87641548865545
34.305809571252595,0.0,-160.5477697570696
32.450471772610896,0.0,61.325320124484115
-76.54098448715533,0.0,-11.595658627698624
51.78749435523875,0.0,-74.41783488851577
-16.988172890623847,0.0,22.42419614036528
47.99127120453627,0.0,-32.371828312543144
-65.98747843853623,0.0,87.88352693440342
44.80083009932863,0.0,53.43693146309865
-79.2304282620621,0.0,-85.56146555305996
-25.963284079789783,0.0,-44.31949529239734
15.608888785506187,0.0,-311.70615537358134
-27.58391886333617,0.0,64.67398393861359
23.13094462373989,0.0,65.66810595355967
-79.15454366693446,0.0,72.60104839562752
-29.451090542336516,0.0,-131.40293235479675
30.359880784655225,0.0,104.93111793815052
-28.669067695109206,0.0,8.759782668364737
50.64932484542841,0.0,49.04741014142576
-29.143254228703615,0.0,-45.89633615974222
-10.032757346796082,0.0,-62.935298152053434
-7.421929254781423,0.0,100.4958666150212
36.549144479261706,0.0,-8.170074141683925
12.256840840181361,0.0,52.51468825318255
-60.76380177665275,0.0,136.78224780540583
-18.528270110779353,0.0,-86.62376183680536
-36.089412866591566,0.0,23.0256668130984
9.40716048569021,0.0,-2.345153223543271
4.122596369422384,0.0,15.399328641769147
-87.5668997614984,0.0,33.0268964423116
30.68415889420865,0.0,34.640151877040545
-67.31064467745811,0.0,64.12392812364104
72.4389189576044,0.0,48.589605113651466
28.629331573368646,0.0,-36.200937197770365
9.500849102581958,0.0,-272.63238420275326
-44.90727639963333,0.0,1.8852903217073322
-27.511267860793083,0.0,137.67005470684074
10.293523356609318,0.0,-126.35436094059007
