-8.60798309621494,-4.193326557798305,0.0
63.068756877575616,3.4819948352129932,0.0
19.36843343124086,102.85915429888483,0.0
-21.67516789640799,-46.82354205125911,0.0
-62.224815775758536,-23.700997004163327,0.0
53.928495474364965,-15.905417303011445,0.0
-9.281574622523703,109.45373784337704,0.0
-89.18690275128964,103.22944430697353,0.0
-85.89106070841059,95.85369332574759,0.0
40.94642886071871,-35.111777394612695,0.0
22.241846087079143,-39.67262385557122,0.0
-25.718202329574712,8.7434319448385,0.0
47.25766487172534,49.835814422207015,0.0
29.69962221795267,-8.324593344520402,0.0
-29.508111558676113,45.2908824621003,0.0
-18.66507545305786,-103.1426890850841,0.0
-34.45353708457843,106.48501897563193,0.0
-88.76882679416524,0.1840994948955209,0.0
1.287533909122223,-65.32522255820686,0.0
-67.78055081608161,-20.186536504422744,0.0
-63.239550101276485,-10.97061383779551,0.0
-53.73156655045971,-12.809180577428023,0.0
-18.108353377287134,35.786440012408455,0.0
-53.288018169119724,87.64251462741778,0.0
33.69425430535171,-13.988016333544232,0.0
-76.16986845735939,7.259483655825109,0.0
66.35239431495513,84.32104278262767,0.0
-26.000467008751755,37.17650367140184,0.0
-25.57401575616229,27.393839998554395,0.0
-4.415715938040661,-88.21179612568146,0.0
58.00249782703896,64.55963136294565,0.0
2.2196410891154965,-107.98479787192711,0.0
7.997582176881821,16.046782242660836,0.0
53.51648872164774,142.20519408019956,0.0
-60.503386150164765,-68.4857597855274,0.0
6.955511920557653,-146.28550560321335,0.0
52.17730698052452,-90.3350332783955,0.0
-57.450867244321216,8.714884649640165,0.0
-102.49912510967332,130.3387674799649,0.0
88.30503731050005,77.24639518078891,0.0
-45.009940635755555,-15.020841383900555,0.0
28.780273628274244,-75.16418731439033,0.0
-10.571517309522697,-8.315208815397302,0.0
-19.849524182249553,-69.96718230652827,0.0
12.69365167465121,-1.6685027208394732,0.0
33.60757277342254,5.338687116757046,0.0
-15.120555772092459,-106.60305430768659,0.0
-89.2063636551996,99.33567101220385,0.0
-71.01645219318917,39.77191622763715,0.0
-41.43512045888434,-16.221199300463553,0.0
-122.95100720264462,-50.224658238320046,0.0
-24.74231741773824,-38.65254049402586,0.0
-16.120428283069938,14.663358104626202,0.0
14.208389059387283,-23.286455368899706,0.0
-3.9891638598684525,58.922415978596455,0.0
-36.72544356036086,26.518862923806655,0.0
30.030536761891568,97.52360564591498,0.0
10.483887787075036,55.08144951929085,0.0
-64.51991358203364,38.259158168514865,0.0
-8.982456387324273,-19.86947009875612,0.0
-53.736733753672894,95.06873379175252,0.0
1.4996311207389557,37.13902558710011,0.0
33.50028143884961,101.86972626156674,0.0
25.78572557419989,79.08072510644024,0.0
-84.16994694965476,-28.75606424959387,0.0
56.98541817980875,-83.17574578772572,0.0
67.17772728363309,-59.04035292392871,0.0
45.4720828378807,124.34060171214512,0.0
-10.340919433644514,-20.851535824304456,0.0
-9.647901131806623,-11.444316936722055,0.0
63.471881221869694,161.55347421871514,0.0
-12.451048095495922,25.004021579115474,0.0
-0.3265450558396841,-53.06978197608269,0.0
18.31464948923935,121.21480794953271,0.0
-148.61864492819709,-34.86490696520376,0.0
-29.88007992565548,-216.03029022642727,0.0
-84.66067604833594,68.86340869066807,0.0
-18.121413577274325,0.03270865920087835,0.0
-73.04151876866857,17.00762058775488,0.0
70.96423679464826,-20.22735860085933,0.0
-36.78722573128103,-76.16615441916173,0.0
-69.18363183615637,82.57755832911616,0.0
-61.83999610718966,11.19843236128677,0.0
-84.20774102666829,39.83966992786959,0.0
-72.99081457978427,-63.43114310739112,0.0
-51.52221450886908,-29.353672865369475,0.0
-17.99176184980432,59.89941052736663,0.0
41.428420133967435,-8.952188699351073,0.0
-33.26307742411368,-113.02570247875747,0.0
39.95872813156382,19.148963553569796,0.0
13.325152306418838,-194.6023301146276,0.0
-19.567604287037888,137.2018090615203,0.0
-61.980848141949664,-14.548169614348597,0.0
42.85975726148889,-34.87338178399063,0.0
90.62404036199669,-183.90615226065015,0.0
11.3196170900698,-0.5442417242847569,0.0
-5.3866313508291785,-84.97726199818764,0.0
-69.91197780555468,-71.8653662842798,0.0
-14.857963887787335,-2.6464256813822997,0.0
21.368934594810046,-71.29688402532842,0.0
21.767899030781184,-54.0050986195253,0.0
12.861384157609795,49.29714404001096,0.0
-28.71089342674055,-15.680095511727734,0.0
17.190291690738512,46.20284718527909,0.0
-60.001055688221484,80.40242251412457,0.0
-8.44930527224076,-53.845003908897695,0.0
-44.815529778409605,-175.20499891791007,0.0
-25.49926643948225,55.49482659370328,0.0
-33.57070302007268,-27.732481473960625,0.0
4.313872868547755,-40.45000108685457,0.0
4.959795769486561,-15.068923852903263,0.0
52.06445151686058,39.526777930894056,0.0
46.51562331455995,-66.94459004137958,0.0
-43.87620510462207,-54.76039771169609,0.0
-19.2150654146068,72.61905459860404,0.0
82.76865038429968,-25.743059291452994,0.0
59.85518863757989,15.77644866585352,0.0
-0.9756443935277745,-159.0121725844224,0.0
45.21709511382264,-86.83074443850371,0.0
-26.526858627741547,-23.914395820628563,0.0
-15.729278105284006,10.2220209716354,0.0
-28.67528328441214,86.3355620345443,0.0
20.533697948397126,58.69238119505577,0.0
-37.96455776017268,-32.36931909876196,0.0
37.33197187442235,-182.1521148120744,0.0
63.64124771046286,62.76855723609696,0.0
43.462477063016266,-8.572005094084858,0.0
-70.07812915227785,15.048727922309663,0.0
-67.6293441771938,141.67812231407345,0.0
38.225913894346306,122.39490929475147,0.0
23.86376697249336,-66.31475106846348,0.0
-40.558981710789745,81.51178143316172,0.0
140.4436025008179,-9.170499959167351,0.0
-35.630056977017475,22.18902153388634,0.0
-12.026356794052944,-37.34272366843145,0.0
7.7528211898184205,108.42372803266589,0.0
16.13463236636171,55.083995657123246,0.0
-111.43858827597822,33.17056843413433,0.0
9.754279388994018,9.538961877776282,0.0
-165.61836330486926,-9.644488251333899,0.0
35.23874490796919,-71.05099408022646,0.0
40.53606269699822,-74.31025801776738,0.0
-118.44821456416466,61.994932403055635,0.0
44.91744381439198,-2.398962628912747,0.0
10.118854651822208,-5.715189340050182,0.0
-8.998533219687213,-65.28802883391208,0.0
97.7267079344474,55.30868720107815,0.0
-121.77069275306094,-154.47494396749963,0.0
42.103552782103506,19.299810895222464,0.0
16.47743784717006,-53.68863060537875,0.0
45.908022157857225,112.52967343473964,0.0
-50.709580718202496,-70.9349681850274,0.0
-38.55230679117485,-45.02000767182319,0.0
-91.20751533500598,85.04420245481913,0.0
95.24386744903795,109.03550936454408,0.0
-112.2302197063912,-62.12603771781047,0.0
-15.169666575326168,50.89665660016636,0.0
44.291200163785135,85.68941557151759,0.0
-29.464559272955377,-9.586278572352233,0.0
103.07909184613541,59.871223744020185,0.0
-11.912595888231154,-13.995057897152666,0.0
2.2229603463352934,-30.858195398353203,0.0
97.82019269694023,-83.21398948907105,0.0
10.362721756950416,53.90077821046425,0.0
-70.33915241496648,-74.31319128826271,0.0
77.75350336708412,18.963474961904936,0.0
16.807212081816747,73.31404015078664,0.0
-89.93792185034279,52.36783294064749,0.0
45.019136632839796,75.24929852261022,0.0
41.70463088405226,-59.24285721079928,0.0
30.45851007248216,28.862543810086027,0.0
-69.06489173976233,-59.914545909065154,0.0
-62.02188679450919,-97.57201212413332,0.0
-36.28487646482991,-59.7593969169145,0.0
-73.79141743318883,-53.857196258454245,0.0
-92.08842043961624,-14.838748900340049,0.0
66.26683468968085,-3.696612821695979,0.0
3.014202541025312,4.648916123914986,0.0
-21.157113816343568,191.31504054196554,0.0
119.89926576671405,-110.45914566230114,0.0
112.15525632318256,34.00506866932375,0.0
-2.414428032636217,210.93478192538817,0.0
54.59135382946999,-120.6581766373802,0.0
15.589904564383893,-16.358001325440604,0.0
5.377611167386535,5.056813883557799,0.0
-26.7065703383359,-26.452094248218764,0.0
1.9160451816048123,62.38922706604579,0.0
56.631516373518174,-16.63961911817522,0.0
-99.05306564466335,-53.632488365278576,0.0
-92.26488572753027,82.4739539240314,0.0
2.085413375533318,-106.99613505953941,0.0
-33.92487507600851,-9.096591359316447,0.0
31.955949282637917,83.11275743458069,0.0
16.885488564068833,-138.63919046372249,0.0
11.858915017576994,-5.615561731868255,0.0
-80.70367858252487,-34.19222912544822,0.0
38.14536536776343,22.962816761638106,0.0
147.90104022889642,-105.16151262872762,0.0
-1.5898065567868325,-58.820270433050446,0.0
-60.11290423870271,-55.16387505521492,0.0
-28.693436594471507,102.81321366858666,0.0
-60.569484514751856,73.21904589901878,0.0
-11.805667323511505,-73.42663812506125,0.0
-87.39720133458087,67.6691880688934,0.0
29.84894477216794,74.44730255922828,0.0
-30.86041834525734,88.59003617875615,0.0
-17.518485600577367,-52.95104640442128,0.0
-40.46927737599703,40.61086467430478,0.0
69.0263985913297,-136.8088492334107,0.0
72.8850607565252,116.21003328267363,0.0
100.64016823916437,-9.257151152022363,0.0
-21.876867912880584,73.54776908002913,0.0
-59.420276520471184,60.99094924206956,0.0
36.88913413330137,15.284145391789453,0.0
27.746720216701902,-37.74400642825309,0.0
77.11372566376546,5.2140263748369655,0.0
-15.184423593426047,26.385670198859913,0.0
-65.31492295726741,140.51037637853895,0.0
-21.02468048501609,-40.15176589326556,0.0
-43.655467930539956,11.935858597743021,0.0
5.139184494397471,-7.890065965288382,0.0
82.31725336494587,19.770431774626193,0.0
-52.91422514162139,-49.99059992221723,0.0
46.28763809965443,92.40856109156677,0.0
-86.53655690910304,1.3373820156665048,0.0
24.197545264737073,79.09422434429372,0.0
-45.89836163199445,160.9719275734296,0.0
-5.196702544823292,4.318060348854408,0.0
-39.664713922167884,90.3059526023251,0.0
-40.65410254299312,57.57729536703952,0.0
27.720233364927033,-75.4529307063185,0.0
-79.10808594110202,140.4118309114148,0.0
41.6397002754138,-31.758086504655928,0.0
32.71218646830915,42.647379467645216,0.0
8.589260346948798,27.25882166138303,0.0
26.439965157304425,-5.2192711111274335,0.0
40.86439299648368,-19.23681511381968,0.0
-17.67406670394483,77.26714360851278,0.0
-88.34401587364708,9.631060425104412,0.0
52.513499234939864,-25.887191772888315,0.0
37.39483740219826,54.3497444764656,0.0
-9.029945607803826,-26.40079938972994,0.0
46.89319195555559,-6.1385379196684715,0.0
10.167396463246778,61.59582063112054,0.0
-26.977989704375755,8.659130188678047,0.0
-7.994901724290634,154.823378521109,0.0
-78.86121687188653,-107.08892628464181,0.0
7.874919616562499,21.195959000401377,0.0
52.22314437305948,112.43922432976282,0.0
-18.94024508100435,20.400321598465965,0.0
80.81635617784329,-113.18251874465084,0.0
-51.223536371782515,-21.363928859210688,0.0
-26.487419608593616,-12.666977750345707,0.0
-13.398699771161729,-133.93191818567968,0.0
20.07308318065299,11.409479883513079,0.0
-37.857884366354035,25.131888206318504,0.0
-119.19656255072344,-117.5688982456734,0.0
-12.178452252423257,-55.52025910884785,0.0
2.503354714240886,81.09855324570113,0.0
26.678900103623132,81.40683526766266,0.0
-48.24164663254159,-6.082376516510292,0.0
-38.250919477134005,-55.125299591346014,0.0
24.84911747875643,2.4889778987624998,0.0
0.7699148616019472,44.46872283945997,0.0
-6.70449908106337,-59.0680386569928,0.0
-60.582004894540646,-31.319905004341464,0.0
7.90780017558419,-96.00644724956891,0.0
-44.706419721185775,141.1645309605499,0.0
9.918305705314465,24.55171176773683,0.0
18.32276663859963,-28.644728887884146,0.0
-46.5918437065618,-23.026261325175255,0.0
65.33933693352483,-64.49592578332835,0.0
-34.090188080344674,9.644772432387667,0.0
-163.66967988185488,74.38617614510387,0.0
67.82920976472198,12.04836940047768,0.0
-33.576098181085825,12.98433735594483,0.0
-43.21569500904427,-23.531005367204063,0.0
40.504397793975116,138.54311854627866,0.0
3.0582449417507105,39.65627321876225,0.0
14.468005561920814,85.88567602991647,0.0
-123.10858216335087,-48.15151682926678,0.0
-2.7770867509792923,88.52869716218038,0.0
87.86981613441974,-94.82851674823947,0.0
69.13270728811473,57.1566912446528,0.0
42.219000225340274,32.99405141005106,0.0
-39.52975437975213,-23.825322873477184,0.0
-38.07050490247983,-1.6305268510965019,0.0
-13.395588285909325,-24.726657639388236,0.0
-33.37883876288024,5.951937804763586,0.0
52.72434395705046,-53.40388384324678,0.0
-14.780470306021664,-166.57393451333536,0.0
-63.98281739284554,7.127626469774934,0.0
-17.173395178382737,-110.19559153435243,0.0
50.59568273877818,-41.819274556360355,0.0
-30.539101730909874,26.14224153363787,0.0
3.0962098479269917,-144.31216057161208,0.0
24.174526116622115,44.35213500986065,0.0
-7.358486150633706,67.00054871247993,0.0
43.14731614208232,79.13437104121368,0.0
9.733198945360282,-127.04115720931078,0.0
10.540147208121379,87.43130924292608,0.0
-26.73369068638433,32.22247199254034,0.0
-70.01354324435567,138.74994523822136,0.0
-60.800028134221726,82.77727000235464,0.0
80.76306321390166,-137.89450624226632,0.0
-38.81344392411781,20.392500672776517,0.0
22.65375411576449,-94.50461314955223,0.0
81.39869374613319,134.401210978476,0.0
-17.339427848599687,31.126281452487458,0.0
-13.513701556455382,-24.78385330940543,0.0
48.53804664146517,12.558652019711003,0.0
-13.775922492740033,-13.653037178057343,0.0
45.06244757669407,63.08411002795536,0.0
54.72270469954501,27.101221127741884,0.0
-21.140172252436265,-4.491614044562927,0.0
34.93376521777605,-124.26537990166089,0.0
1.4480682042724484,-44.50380752825384,0.0
96.71523543199734,21.04074304755157,0.0
22.350153604211282,50.93676156445639,0.0
-16.59208112138467,-40.491609122414346,0.0
6.633683393772885,94.86539707914707,0.0
80.4743496044596,5.121983393590422,0.0
-11.592448175639536,-166.739405410062,0.0
13.99141060605809,-72.32983850314605,0.0
-8.454937496664051,-51.7499824621108,0.0
-6.73400697829063,92.44808915188409,0.0
13.88190891517625,-21.85324848108589,0.0
19.42512797717694,62.25961947314644,0.0
32.94786221338905,-84.4706542910897,0.0
-45.06105336751759,-73.04498115784958,0.0
-104.90072245750632,13.12469896673007,0.0
5.674889205475945,-39.27196901165376,0.0
39.24072516404747,-52.09316385604508,0.0
40.617005030800286,-90.46167073011466,0.0
-22.62308454036996,126.87856281793815,0.0
1.5678493632225434,-8.953135694420855,0.0
-47.609922049307094,-141.5717336615637,0.0
45.51589060848314,-6.239356484856507,0.0
97.30270873498905,-107.22402927053436,0.0
-3.366266837262757,57.85597527528569,0.0
-91.38775237947561,-13.391670336009906,0.0
-13.117611098905005,24.286795702233363,0.0
12.109042588499856,-72.35102716023415,0.0
-25.93542530248624,-22.21064056636509,0.0
22.562822769546496,60.98014607558253,0.0
12.538282314046157,-15.859791038661777,0.0
-1.3254771301251882,12.952609471192556,0.0
-2.8692606547909034,17.87743002400751,0.0
46.06773730494301,-46.86772169177718,0.0
64.57613469866213,-13.602708455468678,0.0
21.393261392729528,-27.44277799134502,0.0
-51.48529942013826,-4.430846133121357,0.0
-18.7465485125527,58.71976727177481,0.0
31.427897406943554,-33.85733974244029,0.0
3.2153603122336243,3.9745773026745947,0.0
12.290609185682259,177.38104575785383,0.0
39.20702096129714,109.14006225794701,0.0
-72.30658768607961,16.149109883088627,0.0
-10.910478970066183,66.3077078152616,0.0
55.02412654503238,-72.76829812218719,0.0
32.18731515779468,41.19800601449619,0.0
-22.411256065966974,30.627735482545454,0.0
-15.56576523922663,-70.67135914571712,0.0
-49.37915820561073,76.4577813272904,0.0
-43.34560662729852,-71.34865847547962,0.0
-34.37649484898411,-154.43875633076462,0.0
-52.22107942170818,-52.667111978885224,0.0
-125.35562455781171,71.55304472103207,0.0
-12.599001970936968,-11.441481053840212,0.0
-53.476071463213955,143.86094840302292,0.0
-83.63372205623165,28.55857299267808,0.0
68.66678927787623,-113.06798967120803,0.0
-47.74756538719798,-7.289791273115589,0.0
56.48385950850962,-38.92186814270141,0.0
-33.33523849031935,23.743923581601997,0.0
30.833108422374284,-66.80713688179661,0.0
13.104754560341709,-88.49669005608875,0.0
-15.55693175506369,218.06915027654222,0.0
-60.04172935178895,122.24391989670563,0.0
32.100070794294204,91.76380588857957,0.0
39.79309128144986,-63.64232010519557,0.0
-36.847299554150304,-93.7745076152428,0.0
-13.025314804487445,152.8287721714833,0.0
4.178323762655231,2.134882503010861,0.0
-30.619767486434778,-110.32032314729227,0.0
-36.811567498388456,-13.6404469209048,0.0
-45.52376258522264,-123.62895371429211,0.0
-12.143577378148075,-71.48962232038652,0.0
22.637384790391078,-25.5312264525218,0.0
-47.119113487816385,40.597472498376966,0.0
-97.495240280092,-42.11503021729878,0.0
9.955810575714946,121.4530106442718,0.0
-8.870414686917174,-26.39008628876787,0.0
31.292861099676095,71.05871194245218,0.0
-90.19929866976157,-68.58863998987941,0.0
-12.688415155289137,153.84601439387254,0.0
-84.50155619841911,-94.55871360579762,0.0
14.928215279675353,33.64818718663508,0.0
-113.03517104621858,-83.61245728141273,0.0
21.246274920860127,-4.255064398570612,0.0
66.87617328277058,-65.40613202972072,0.0
92.95364357584802,-163.57710472596582,0.0
-30.039090653942125,-63.5808795550222,0.0
16.56265899992661,25.031524538729883,0.0
-40.11469191414411,102.0701318182253,0.0
17.08732535160837,144.5093327526581,0.0
52.74501673518122,-11.597814614153672,0.0
16.85774908765254,-65.97357057286274,0.0
38.444570549869084,93.31099575333491,0.0
9.708531996036584,44.88386509301089,0.0
-13.6269476930169,15.783286782780888,0.0
-96.1075183282896,-1.6490043582010505,0.0
18.10415857499688,23.012494081143394,0.0
2.941781111319807,155.16892202187708,0.0
-9.087077349926757,-0.5135219760672216,0.0
-133.12532374733473,61.68210806979608,0.0
22.750395685779534,-14.987390428541298,0.0
7.95386231874973,19.599103981911213,0.0
114.69478839193286,9.909989359954462,0.0
25.091770924379304,-67.46894876914322,0.0
108.25360776311277,-172.75864879929767,0.0
-25.5493037480703,-34.18175880781906,0.0
-8.816325113335614,25.480606134786434,0.0
-83.11981982279053,-3.9211145372013103,0.0
-49.37187714534792,49.246715836414964,0.0
-34.24946262241887,-31.251307104311532,0.0
34.24411676487494,103.59154061872782,0.0
-21.505643096353097,-100.02915643407049,0.0
-54.28072924067591,187.18131121128457,0.0
40.117393540896785,47.22909860844345,0.0
6.704262138728226,-3.7123303268292616,0.0
50.54618556287296,57.95174683519587,0.0
-27.67027398696656,35.96570432233043,0.0
6.177128249679352,-59.81162940991717,0.0
-79.25574980559375,-91.96387384073233,0.0
9.459966019956132,-0.0795206175322377,0.0
89.83024078899948,-90.3753836409244,0.0
-60.211104719458234,-59.181378425621126,0.0
-11.334397840799344,-104.3733256209849,0.0
35.05094924150279,106.28576435868662,0.0
-28.486199049132598,18.406576505495224,0.0
-67.7669728858481,123.09594290711374,0.0
-59.121169985582924,-31.914056893405004,0.0
-36.2356184736141,69.61353861958479,0.0
38.263975968556856,122.03662975358384,0.0
38.94154074468585,-11.54067432260241,0.0
22.041575606686898,85.60304523311657,0.0
82.76333992921653,-18.29440890958277,0.0
-90.84756624380003,66.01769394164035,0.0
-7.771150615340932,-103.91104166499682,0.0
-10.30658214754216,42.849866424876176,0.0
-22.046980840636508,-9.962630027264352,0.0
-44.39300350386255,154.06538272117268,0.0
-56.368862239255115,-31.47357018940644,0.0
-96.19682670699741,64.2573254042033,0.0
55.78273172393683,30.780400232452646,0.0
-26.978552203491518,-46.68176143254969,0.0
6.060502693593872,74.08060399788732,0.0
-56.89278356205006,-56.66838810876644,0.0
-36.65235769160535,-100.59108237716836,0.0
5.06973099808652,-96.14561277189219,0.0
45.55220601018385,56.9504431347577,0.0
-30.009315282981873,5.118490684969559,0.0
-29.76384026951887,-62.71772598424251,0.0
15.350301440047875,-12.399506020146882,0.0
-142.31132649061865,68.80980166982937,0.0
88.73815879940138,35.27939997347192,0.0
-49.88671389892707,74.46981468397757,0.0
88.02766856971114,-87.45493917741713,0.0
59.74646025527331,14.235059996656625,0.0
32.36775672723914,-12.969116707281858,0.0
21.44121501643957,-5.1359307037819635,0.0
-50.411795197127475,11.348879622521038,0.0
60.12239452008412,138.74560607218658,0.0
11.584370043152822,-23.10331171173511,0.0
-13.703658063741864,23.935419299986016,0.0
-27.84147914853828,12.796817468096926,0.0
6.999203255828615,-30.287322744481635,0.0
-19.460854109671956,93.82114387576364,0.0
-34.0068162987112,-110.81056814098915,0.0
0.7439298869352944,98.37560070031887,0.0
40.771493546923395,-14.62308812879029,0.0
7.872799227718012,23.53504374428416,0.0
-13.150320886615082,39.39487856310784,0.0
15.02493310435836,137.21708192509462,0.0
16.702609688691037,73.78581998036232,0.0
19.131060067236707,-41.23348337562322,0.0
37.64403010644731,-98.46644714909114,0.0
-24.984493344676572,100.28615756533708,0.0
-90.70392084205002,95.63765672531281,0.0
36.788865455694015,147.65427699989726,0.0
22.70848205792292,11.789212612899185,0.0
23.707221666718404,-7.832926061063556,0.0
8.59837164227047,-169.94295699143734,0.0
-37.3394410157165,-75.04892930366296,0.0
63.285421926022366,155.2277419566026,0.0
-10.084859984772807,161.0168032786738,0.0
14.873004213256536,67.67477723924475,0.0
68.81380208481433,28.079561442981632,0.0
28.288451994713547,65.99197582541406,0.0
-116.47970202930509,-19.067066020434083,0.0
37.72025459395831,81.48832837102219,0.0
-39.953942303782945,-1.2133254079858706,0.0
-106.33280629360826,-85.40899467781142,0.0
-16.24996339608425,18.902924769576753,0.0
40.33779057698095,39.13653397473201,0.0
-42.871556866676464,-7.709809690677589,0.0
-30.13534532111388,74.80080872397208,0.0
-110.63359313697686,5.298298201227671,0.0
-22.379999467956935,-95.09113346513328,0.0
3.9103985405059256,-50.71402211069742,0.0
56.39158096496595,46.4017931491162,0.0
22.067331879373135,-6.07937424564013,0.0
-1.146599252943179,-29.014849182943454,0.0
34.81639717207269,37.5866422909248,0.0
47.68220997259679,-68.26615554548101,0.0
-21.52757471589893,112.95326566678979,0.0
-57.84520141243667,48.63953007679593,0.0
-50.758498438496666,20.09089766513208,0.0
-79.15028733303163,-40.27898554699816,0.0
-26.82500636284774,-3.4038607933002494,0.0
-17.902253389350488,-78.37533793653598,0.0
7.3538677225600395,0.0,-63.52091618776175
-35.44661239169717,0.0,62.23361563695925
-38.72902928399622,0.0,154.0253705622855
28.009430204391222,0.0,-65.09573910088281
75.91533694163023,0.0,-11.493292449293685
-80.18556532428123,0.0,25.671563032619186
-24.65453814024276,0.0,-207.3328254827998
33.59318832774081,0.0,-45.84021567463349
-110.32379377328306,0.0,-60.17390757431759
43.79764993853285,0.0,-44.74758606059372
8.218048537622778,0.0,85.28312708463632
-74.297077172312,0.0,-12.69008112604121
-31.793361189117263,0.0,-117.64995969140088
75.99541591807886,0.0,95.36317898505074
43.32635616708742,0.0,-160.265111983153
-2.4605212952444684,0.0,72.06386471609127
-0.5151503196709746,0.0,5.333260570657896
-32.32853180323924,0.0,-9.307773587084592
7.693134049138492,0.0,79.73892921566498
2.5635118268445947,0.0,-1.2410897732150714
7.5559136272670555,0.0,-39.144527385156394
41.49740571932322,0.0,59.79017685375545
-50.61862014914825,0.0,-36.32395445627038
-11.35792480529194,0.0,53.67774205911303
-23.703505028581702,0.0,64.55141700866709
7.916797202719605,0.0,198.61922358760526
42.58077927402706,0.0,16.39195260453404
-23.091106961158868,0.0,89.76467671127145
-14.43954870632029,0.0,42.53180426916601
61.74028558155018,0.0,132.3778072519175
-46.53277017552983,0.0,43.602386805821304
16.967080070397543,0.0,118.11554768348502
-36.82788911771024,0.0,-94.31420753338648
-9.09483797593091,0.0,51.51830103825114
-48.51160702234842,0.0,-14.263775352501408
20.690604620530344,0.0,-17.32045608724885
-36.48079266930815,0.0,140.17537491247913
-17.796662124860447,0.0,82.07940217862702
64.3737994235002,0.0,-94.46669194370767
84.39297462509558,0.0,60.965199690327914
-0.3860689719247702,0.0,53.15225873701402
-22.98950022486687,0.0,-15.894953367547888
2.3590580735334576,0.0,-10.673609903362077
-18.717065353901816,0.0,32.43584544997723
-23.90658280883899,0.0,-108.0678475304477
-68.73719311400357,0.0,90.20663117509686
-40.203583857050035,0.0,7.157712037206895
43.246158777588114,0.0,70.78868803617006
-16.185857925995727,0.0,32.50754682102496
25.025802575465384,0.0,-75.19685238777615
36.05156873935605,0.0,64.24920192546293
16.091742459371893,0.0,66.83020227461269
71.13257779674517,0.0,65.10428659328552
-6.087847241386099,0.0,61.02253215284474
-27.64153307502194,0.0,106.30500431703523
57.95056532330838,0.0,-90.31331647311497
-17.71540041201781,0.0,-130.39548310566911
89.8750509893433,0.0,-45.029088298836726
69.1675832476958,0.0,26.751602422845274
9.620497487264242,0.0,173.25852445030557
-1.973185012918197,0.0,-14.461340339899465
-37.45412821371439,0.0,-170.49387253497457
17.270662964716852,0.0,165.95505425001295
7.590572154758868,0.0,74.38057210203027
13.427946139068,0.0,-54.955817147796814
29.86267888879891,0.0,6.204550848397625
57.64761007009691,0.0,43.61150362519104
-18.16779460113133,0.0,-124.85810663517144
3.565305399360314,0.0,-120.33146939434184
-104.45279380363604,0.0,-80.23641831245484
-60.602409491498236,0.0,300.60072903896696
8.124790249020068,0.0,61.73387770537216
26.43991298963125,0.0,15.166518831390361
-49.568124992979584,0.0,-15.432672630483172
-35.72151112165532,0.0,10.151436736607534
65.35471181475361,0.0,-75.10752427574121
77.56337597358961,0.0,60.24414743361506
-47.57298635590865,0.0,-144.94731373630577
-54.80243760523852,0.0,171.0421921743195
-37.024773644664286,0.0,91.05540331335361
-61.96261000764501,0.0,108.95433859331604
1.538638400722938,0.0,62.00801911877114
-54.32178734021971,0.0,151.32985632081434
-9.935218696646613,0.0,-38.93272863450998
-11.464206786124082,0.0,30.81763793176613
39.22303393059892,0.0,15.6032087238337
8.221867989055282,0.0,104.82640735372394
57.08719829862644,0.0,38.82843090304972
45.15469720885285,0.0,-38.235655075366246
56.798982422933456,0.0,-136.57768094591995
125.06068595354134,0.0,23.307600614877124
16.461043064118847,0.0,147.23706897552177
32.017446444510064,0.0,-40.18120051119755
-5.484036581881954,0.0,-28.479884272834628
-48.59764150833599,0.0,-145.2670645540397
15.34254052322564,0.0,-115.98446296042842
71.34372112286898,0.0,-12.544035452962694
43.02340658831486,0.0,-35.80366910788325
29.1793001505323,0.0,16.73464862025702
-58.486281000259645,0.0,-130.1586629874576
21.486697626415484,0.0,221.74172785524223
10.940448171808562,0.0,66.48495904294637
-93.10109562934232,0.0,196.44616923390328
-2.778623454660235,0.0,-57.93237948714619
-0.46742347007709695,0.0,129.48745535716878
93.30068531483138,0.0,-104.11952063090692
-30.788436480521142,0.0,49.51187398722187
19.387461008888625,0.0,-102.07453201652184
70.92934307270734,0.0,34.324301701470056
51.59811990836373,0.0,30.824365164641875
-3.9720221519490924,0.0,10.725431513751921
8.575762879275409,0.0,-106.25610434918096
37.447805078513895,0.0,-103.58589481220504
9.016939467682988,0.0,27.751903994024456
49.79983476818896,0.0,162.1854080740368
44.73940085488377,0.0,-49.77859759539727
12.903297828378848,0.0,-25.083562280312226
-11.61251079538443,0.0,168.1920761151865
119.87415085578226,0.0,-39.114849612265495
33.28314201364566,0.0,17.322625784653482
-58.12316429358182,0.0,113.23145461417694
-27.22261324884751,0.0,46.433163461418
76.41207681914376,0.0,-13.217165502472536
-38.797082040103234,0.0,41.74397306543203
30.941632391405765,0.0,-128.02858041894976
-5.77024671435192,0.0,-50.15008356954234
65.42595458669457,0.0,-85.36763785412646
17.92229336257993,0.0,-138.58540767185352
-13.24125582246087,0.0,91.6070222721988
62.59314068063384,0.0,12.871227234301442
-43.68412571720527,0.0,24.54601878156998
-53.73460409129832,0.0,88.6951102059708
-35.70151763057618,0.0,-33.75781896516726
-37.791915928004265,0.0,-148.74394831152708
5.856552146533529,0.0,-94.36863501889165
-24.348738864299747,0.0,-131.51425445979098
37.31395287656506,0.0,64.36205894323656
7.119585802680854,0.0,199.41611509832106
40.5275129035493,0.0,7.070146754705418
-26.191654234691796,0.0,89.72234822087668
-80.16242847405042,0.0,-98.52787902007975
0.010972545106794915,0.0,37.13578788268363
17.413447842564654,0.0,87.55464109495227
-29.559451137642167,0.0,-125.83641418527355
23.559149909511632,0.0,43.99212416807436
68.58080755972887,0.0,144.0536167706084
-14.311064516783087,0.0,5.5708208400364505
-88.57446690327151,0.0,9.526663823582211
66.03192010036891,0.0,-20.648875325573545
-77.35338430209846,0.0,96.3671344135133
-11.593935012184572,0.0,1.6663368540956536
-86.43615431523412,0.0,-125.96217736888616
-51.33090199571476,0.0,7.962139538988484
10.183675038441091,0.0,-124.06176081407317
-76.2357499805909,0.0,22.945376031562866
-82.5443729889847,0.0,-65.43767160229976
-5.735687701940191,0.0,-78.4646822510133
-97.80950740149244,0.0,-45.547452872153464
65.83580887373668,0.0,-56.84124572090456
16.587378742033263,0.0,-153.8096660585379
-57.71584657371919,0.0,-11.98119303005946
45.827603721235356,0.0,78.89331890390513
5.764339358029469,0.0,7.004999494293055
70.84826726641329,0.0,96.75437176497721
-61.58770854787954,0.0,-114.17968991942702
-43.04359879873112,0.0,88.07031535048725
34.8757714375478,0.0,-92.81258838628523
44.481257339224605,0.0,-99.74528367505921
-51.98339344732838,0.0,-29.955733543281244
-21.58878941676301,0.0,-111.32578315209724
-58.07117791490065,0.0,47.026338055790674
88.13894822705556,0.0,0.5748388144054953
53.29762896531788,0.0,55.476710053359426
40.56301096571763,0.0,-92.01426195901766
11.883651494071222,0.0,24.96492881612896
57.02913332458775,0.0,-117.73069523904731
-71.19874944519631,0.0,-58.25105231005155
-29.885782740619526,0.0,36.07025207906201
-61.34913245652578,0.0,4.52438898041392
-65.95559626226039,0.0,-12.390473816361485
78.16689046587334,0.0,-30.508372058183582
22.240588019765223,0.0,-57.58668536255112
-111.33240655798033,0.0,-101.52165132989603
-2.549230437297265,0.0,4.173414990615732
-26.752520520070732,0.0,65.86513040973003
-0.10419205834810352,0.0,112.30708466759761
21.301690761233303,0.0,88.02876743022189
1.052917984490611,0.0,-36.23608337933035
-61.936584983754926,0.0,-66.65811056699789
21.111382673804776,0.0,-40.69417117887912
53.23379943093105,0.0,-6.093448165873013
62.98134989029266,0.0,95.45107988042456
-52.419387852168995,0.0,39.534448604535285
-53.25970652692729,0.0,115.02356081390748
44.51445166020863,0.0,-161.9817573569039
-71.35081000601204,0.0,14.658140753034766
-13.250825024073928,0.0,-16.94347624087907
-12.694994619030059,0.0,-17.759195833797193
72.12143037142663,0.0,50.93050562313668
79.79510667415126,0.0,95.35038415667363
95.10889249768509,0.0,24.91949353643229
-11.8866160528872,0.0,-62.64583126823255
33.52147507781477,0.0,89.82216296020535
42.721949447896264,0.0,-32.740746301412344
53.91296422092219,0.0,-129.90240581726542
-18.738806028838834,0.0,10.3359139016663
32.32104605900291,0.0,19.416110846155227
70.67901316571721,0.0,-22.58495880614502
52.77008999139222,0.0,38.54939325514368
11.193197037806533,0.0,-14.570196142164498
-20.020975942127034,0.0,1.3617366757432112
74.66765175974787,0.0,87.46091704182513
-1.7568971660306514,0.0,98.61350714690951
-104.60439025494945,0.0,69.5343274340732
8.32759378315089,0.0,-88.47736583917431
-43.13707174321992,0.0,-36.31585498714675
70.35731328718707,0.0,-58.96227419837007
1.2213197371211235,0.0,30.984615550510743
-35.26581350109823,0.0,-61.44911887822272
-5.382837857527982,0.0,-73.75052345712061
-4.927550352212002,0.0,61.57086883031983
-22.133068756468823,0.0,37.983506116989965
148.846391270174,0.0,57.36494718836927
10.494451141459148,0.0,-6.09143252186224
18.880574451250826,0.0,-126.97413437371394
-12.381668445106415,0.0,77.7595248727898
27.50522836764164,0.0,-12.461546247791402
17.122512447713735,0.0,-77.54625061145742
-40.77026718076999,0.0,49.78370486058446
11.48736676841275,0.0,34.12691789114184
47.64887719792895,0.0,10.716442918819798
38.520148864387394,0.0,66.29557665297445
-20.923020963897574,0.0,235.57023151524476
-30.049394771934683,0.0,-112.31373508589675
21.709597545331892,0.0,11.93906543866707
-31.032761824093065,0.0,36.49228502704241
-0.23066227262632036,0.0,15.05840981105642
-45.91005656216246,0.0,-96.4044350945661
54.62534995333259,0.0,2.571775625884165
1.689585594880972,0.0,60.7231625058909
-43.09379080091264,0.0,15.58304542088174
42.025006178093896,0.0,-43.667603482673904
-8.31067841128792,0.0,136.17193934085324
-110.33617981809623,0.0,-57.56263545461812
86.01883854327907,0.0,80.41689174732558
3.241199574412021,0.0,-10.03562770020115
10.683956274644002,0.0,-128.29071298228573
-97.92104208961092,0.0,-68.60880230248507
-17.266045077898877,0.0,-64.35228003089543
-72.11186256699438,0.0,-58.46671240066486
-39.36995656881606,0.0,-107.2966582003769
44.70552958055827,0.0,70.73058240572183
38.55187057351282,0.0,48.18620140031144
13.821954594978934,0.0,-45.930989009809274
-9.662633666319657,0.0,17.12957029028106
-83.48896700121456,0.0,39.3736790295911
19.014974107591676,0.0,128.56378011800027
-31.647025792626337,0.0,-122.415159172249
-34.68636287872221,0.0,35.189759428837704
-132.31007383688845,0.0,-56.93098569630718
-0.7437536553944646,0.0,100.81484006616215
16.959948425535643,0.0,90.99040485307226
-10.38711002700917,0.0,-44.61817966834512
52.972723565615844,0.0,191.92648772950986
49.64002399935445,0.0,-25.471473253557246
-11.556801288396926,0.0,198.3799604370571
11.435930666774215,0.0,-42.14917139115153
-61.053394876399345,0.0,70.60520545016864
-16.23820395569326,0.0,-112.66504868614535
1.2522763404870212,0.0,30.456865666947934
-164.32404669835176,0.0,28.041120226822965
-28.512112602870758,0.0,-41.84098117047762
-72.08326482540627,0.0,54.05131759590549
44.321119913839304,0.0,30.421020869397346
-131.5036141520108,0.0,-61.16561897817231
-34.13973311631829,0.0,-28.039767448718386
-11.74704944051336,0.0,227.10258736933386
2.5637417584115973,0.0,106.86520198645101
37.17528386453094,0.0,-64.9078601337166
-54.094793093491376,0.0,197.47021082827695
-29.770091399444514,0.0,24.311113504869084
-35.109531519253586,0.0,179.88386432788224
-46.51494214959277,0.0,-148.15809955564725
9.645906472473403,0.0,-51.818504687194036
1.8311774553497195,0.0,157.49258158371416
-70.74456131167628,0.0,-80.34145697889626
57.61925326270803,0.0,-50.70374347921455
18.999190211245224,0.0,51.5626211408153
-135.87079880712483,0.0,-47.80358237508381
-88.80048496981419,0.0,-44.900737064201074
-1.8133238488115246,0.0,-187.52453849027415
43.73919704095603,0.0,-73.3750726105949
102.0772044047729,0.0,-55.966916264967324
-15.36900961496666,0.0,-70.44362025614626
18.703568279693997,0.0,156.7533564326314
-11.713030517976394,0.0,-107.7601746992456
-31.38210194934819,0.0,-50.08250881534819
-70.29824135707223,0.0,-96.54471560651605
-51.01671734188867,0.0,-38.061917701297226
-5.890608185458414,0.0,-169.65164329132662
29.492078860729386,0.0,112.04275257680595
-22.80361019368085,0.0,87.12975018828244
75.81271383015819,0.0,-35.70148230215879
45.35394515561549,0.0,42.88463095104126
-21.064338952259785,0.0,-106.41771888111096
23.274741842571313,0.0,-60.256974886276055
-115.37442242450946,0.0,-72.71393551741909
27.30013399295888,0.0,77.4649981266718
7.3404401059117195,0.0,57.88583717671611
-35.01268314549319,0.0,173.36287489126906
5.971650034819302,0.0,138.36258463071326
64.65779730164247,0.0,19.988209508371362
51.35472212770852,0.0,-37.275735322677626
-34.084010321412215,0.0,-6.32452977098567
-40.244136995242,0.0,-16.19085970544864
-26.6751952093178,0.0,59.493879384933514
73.83975577683378,0.0,-144.77986322439378
12.354025014097356,0.0,-83.53491341422091
22.274293493158616,0.0,-79.70310875084725
-16.57381169788262,0.0,83.92202492811214
62.949807233042,0.0,-11.54350449896064
41.96164209650327,0.0,32.7320729919447
36.284247694336294,0.0,-157.94586973117333
-28.667191003060356,0.0,-78.91302154343914
-2.7277816491995956,0.0,-195.00186261362393
85.75293296875633,0.0,-16.50484334237729
-89.37706377837723,0.0,34.739756558750635
-19.835479731573194,0.0,8.676097216806024
66.69580404137027,0.0,-15.051426524614294
-52.90134595580041,0.0,63.136852758304485
-72.76393686365245,0.0,114.83358401331118
2.5099348225456626,0.0,-56.81986750964603
-1.7030773203876077,0.0,-117.49287717838386
18.698718111364514,0.0,-28.257197750857973
23.027304807118863,0.0,94.71452190226032
17.333034033964616,0.0,-0.7999943496304387
20.496090950890263,0.0,-68.79422319040292
80.69753173011195,0.0,-14.12009379863249
55.80479111972569,0.0,-160.21384340046313
-27.185104516334185,0.0,-0.10450278165757511
-41.45696947108819,0.0,201.40802137576563
-26.600979513998595,0.0,27.014498474622325
-5.251504450090285,0.0,33.03844235433929
-2.3807277302513623,0.0,-61.79035172639634
-8.124520980429736,0.0,96.19400056088438
61.286956203400486,0.0,-86.26344035990144
34.346584211600614,0.0,-46.50986700451322
29.863156585124994,0.0,-100.9838369414675
-5.447448044272688,0.0,-9.900562248850726
18.427953605355295,0.0,46.56757523810039
-53.84690543349947,0.0,44.4536617505719
17.228615423976095,0.0,123.65524149792772
27.430475011378885,0.0,154.32272848885307
-31.873244532086165,0.0,120.66144713236204
-8.592774411418487,0.0,-212.00978530706
-52.44690916498962,0.0,45.47749022428704
-51.452703992264695,0.0,82.38080695737384
-1.922307952163887,0.0,46.01961040759588
10.604868737559224,0.0,-26.085635695458663
-8.667796273985743,0.0,20.24499931974833
63.26068216405917,0.0,14.53803785856545
-10.205262068217278,0.0,20.294013142024298
-6.6791475528092406,0.0,-45.23680031275482
-0.6516537472674946,0.0,-4.355515729879656
-5.248773540531431,0.0,71.21409597730741
-0.7634319917938223,0.0,-50.79875662749753
27.953789920616966,0.0,54.12640018964066
89.91795177160841,0.0,-138.12896891629418
22.9083150704012,0.0,-69.07137166415843
-42.24870631885286,0.0,7.628060948289699
-107.70847234708702,0.0,-182.96419227725266
-147.99972562612695,0.0,-39.76164079538242
-66.49018365137994,0.0,165.5256612228459
-85.76807115884368,0.0,-31.453548667660286
42.60154799739103,0.0,16.845689205584048
-0.29896053690974644,0.0,67.6048546967004
73.94639770902943,0.0,-194.53507385648993
20.153841444364375,0.0,52.324442287189505
75.05840559730574,0.0,47.41846227251132
52.93758557750628,0.0,-91.68390614042303
-33.155259405179294,0.0,10.854620030648436
59.607045697796266,0.0,-13.60859268464719
75.84223731899907,0.0,-123.77970154913096
95.56992659952208,0.0,74.04273109801
62.10081101572796,0.0,65.90848076254609
-16.089174124559015,0.0,-111.9048548149934
-153.48794357579885,0.0,-234.43948796963
-31.024649896067324,0.0,-160.3832934770912
54.403912420787314,0.0,-31.429387783212192
8.741954009217896,0.0,-129.01397210982444
42.85896408109915,0.0,-46.366928851221104
106.07615539862701,0.0,-51.64412905314598
-51.81627918524392,0.0,-80.20784679580392
37.6072446375845,0.0,-47.741007217620805
-44.714629951522426,0.0,111.05491643894075
42.74680664885444,0.0,174.98352590784106
-57.046608033308864,0.0,73.06295131723766
97.9451178880528,0.0,-65.4214797774677
15.872860434538296,0.0,-133.9746573480122
-64.67629294828937,0.0,-15.497219770883559
-72.0472022613545,0.0,-82.21507039278603
-12.155036887094974,0.0,37.0245704692724
107.95997885326321,0.0,-46.57545040854076
32.930917901435436,0.0,66.92834096374891
40.94415433775197,0.0,-44.00966192639247
-96.02922474558588,0.0,94.45071655252721
28.480217264370783,0.0,51.74281669674612
-51.277108364327404,0.0,-123.7428734655085
24.65640009377467,0.0,42.006698286502136
14.15266267899764,0.0,91.21288397331853
24.170671871970367,0.0,107.30850818377324
21.27253279954773,0.0,-75.74838971810581
63.004700225776375,0.0,46.958251413628794
24.9053066016533,0.0,30.129254018872697
35.7475876813163,0.0,-53.269851986146456
92.98469928911658,0.0,40.5998873658351
79.83072315853565,0.0,75.9105080841153
47.22095360262312,0.0,37.718338192707265
36.80128855958747,0.0,-122.97231585835094
-24.487215722952524,0.0,-93.47827061333992
-35.64163017055659,0.0,-58.076152218641546
-33.59693688436308,0.0,-50.42060650875853
34.023164377697455,0.0,-119.93991457012208
76.26463108207146,0.0,131.51578141415328
-25.838502173034815,0.0,-106.06101243780503
-181.67912082077936,0.0,4.025879917250324
4.823426455075778,0.0,-76.61744188438901
-42.03766880167127,0.0,-35.18347747791958
-30.30177490512653,0.0,-154.10711048822827
-6.44496171870263,0.0,-172.79362864437223
3.02323020918242,0.0,23.98647090935616
-78.66168592014171,0.0,-114.50801821499792
-4.025232496221992,0.0,-154.81562115275395
-51.69633857128274,0.0,-27.40041870589497
-7.53680895596716,0.0,-116.86052990867927
-42.75959718182301,0.0,1.4886244434407176
28.104326608328005,0.0,203.9960296185549
19.773561307764837,0.0,-212.66244083209958
55.847279374774374,0.0,-69.21120869602933
-48.48167073523765,0.0,-169.68030240500806
-5.683665352581012,0.0,-209.0817269200688
-52.67274224808302,0.0,-65.66481498018607
51.886390262178836,0.0,-83.44060697827597
37.43807736262511,0.0,-21.05816072381507
70.48543182949795,0.0,-22.028928668280784
18.63952231345838,0.0,-163.97854814216277
-41.030263969532726,0.0,57.09189929303575
-22.509397506291638,0.0,36.91617653081951
-43.579589383435255,0.0,56.38411447573071
26.938017275705555,0.0,114.38031933901264
-17.611416226898395,0.0,-83.00395388011515
-1.62315175312047,0.0,5.714460239986195
2.248007503614611,0.0,-18.84633577556363
-33.427312381150536,0.0,18.56944317663288
-11.758264724179119,0.0,-2.3593527901248494
0.6532510744775111,0.0,-50.03536446751463
-88.88421936635655,0.0,70.48416528685763
39.26616232303424,0.0,-70.55523234844958
130.6470753162616,0.0,-32.9670995001438
-49.91618355234879,0.0,27.325955370453173
32.536339446699564,0.0,-155.45793490324067
-9.922911808953444,0.0,-109.71771126869831
100.68640142618115,0.0,117.0174304926307
17.880046548679445,0.0,51.8470356361867
178.55115960937246,0.0,-88.62732669727828
-5.283563332463992,0.0,129.6767637333128
50.23116205281575,0.0,-57.94353307630205
-61.41843980625051,0.0,106.50136959979575
-33.414743686531196,0.0,72.96718092235697
-8.05121678341154,0.0,-79.34061949570193
-84.80981970367102,0.0,-71.20951600701733
-44.316122843887285,0.0,71.00989169378698
-2.839112245019017,0.0,-52.00120665100913
94.8720452234768,0.0,121.35185446569129
-13.767692487767105,0.0,-122.78953241144289
19.56491463296389,0.0,55.93255605146367
-3.4139893259057237,0.0,91.48548830811774
0.8922215199677743,0.0,113.34352604734683
-18.761871228887305,0.0,-30.869008072430983
41.033363045181254,0.0,42.63799232099515
1.4400293618642723,0.0,221.45806677939214
2.470678827505427,0.0,63.89250659600616
21.51733235905334,0.0,-12.918790294808659
-20.04481322061087,0.0,6.251528919632269
19.202426739097497,0.0,13.394647519330087
15.382865501653741,0.0,60.32259447810164
42.446065240058886,0.0,24.351428690371048
-121.66192408796479,0.0,72.43051375138019
-38.275175040832266,0.0,63.51998126203524
30.370726813588274,0.0,4.516439799902168
-32.10219868332524,0.0,58.549822380825354
-42.834396606279746,0.0,-84.94010922026419
-28.922175214988115,0.0,32.710809694485754
-48.035476782914394,0.0,4.924474484462626
24.92463645479057,0.0,-31.701517875243688
-34.828470009533305,0.0,157.15508703204338
43.11848413497083,0.0,-9.68351434093461
-31.345572496900846,0.0,-26.19190683352699
33.35064317798484,0.0,-5.756291589593028
-51.400646038526986,0.0,103.38565934018632
-51.81644594805337,0.0,168.0759936969216
25.288609711342342,0.0,-75.52072846515124
4.135211629212609,0.0,-51.96750333733941
-64.16053681503857,0.0,-22.561362510125964
-96.93970392794465,0.0,-72.11937236888872
-23.441814330331493,0.0,181.3917810744301
-27.87025250483599,0.0,-50.583318496668554
80.05304212024012,0.0,98.70037341652136
14.9931665700302,0.0,-36.685148047030395
48.625229835726316,0.0,-48.848131533656684
-56.30715026421635,0.0,-224.6914187895154
79.38955159540232,0.0,176.88874663395026
-21.107771781356647,0.0,12.653468080968985
-26.90530203535124,0.0,-49.715540858420475
-48.96164586608296,0.0,-201.30068056389464
20.03093978836866,0.0,-163.87457319871334
-11.89362826260432,0.0,-66.21090169246081
54.25890596226935,0.0,124.69752155549118
-1.6831634976643437,0.0,-7.593797229569315
22.48254478869405,0.0,-80.73227934702784
-85.85555733044008,0.0,102.26897298402015
-13.85661733843618,0.0,59.36986899751134
79.05785954736561,0.0,29.71438005893936
6.998554772928428,0.0,-6.924823079202811
16.94511095112656,0.0,-52.515962666165755
-113.765772245332,0.0,41.395496318275036
4.781198523841006,0.0,-33.801387585225136
-12.301055491806572,0.0,103.0902900653017
34.15781349946847,0.0,-205.87084570322278
5.153680642023762,0.0,183.9570688257328
-27.808731218171403,0.0,99.591482936377
41.264891112246296,0.0,-6.160989427097938
-47.33310803964154,0.0,58.08852140323601
-48.285869661419994,0.0,-72.11684363835614
-25.947626108012127,0.0,24.801424610200158
51.22630604704711,0.0,-96.76290072024833
55.811560533663375,0.0,38.42972602759139
48.605219456304106,0.0,91.82127618418546
109.82901117543362,0.0,-14.804790187037755
-77.98359071158049,0.0,-45.24899436072378
-20.95870337128668,0.0,162.318340980009
41.91581491802697,0.0,83.438146316323
67.75173922374651,0.0,-16.13881731288499
18.495092319412695,0.0,-79.68802328020887
-2.277298010221482,0.0,267.9198719646316
112.38992526391543,0.0,52.961798517501734
24.942165051700066,0.0,132.1629582316606
-85.05419217661738,0.0,-171.61141600194404
-44.261017368387414,0.0,141.73780449276563
-83.37912761580536,0.0,5.539153873555636
52.73199794215956,0.0,56.85043762778476
1.971543514700702,0.0,106.49299356178473
-96.05114313900343,0.0,-9.43315517047433
64.4848170998716,0.0,-134.6148915363661
-1.0639410763467385,0.0,-43.592159824958784
1.2149701502431525,0.0,-77.92144205404469
-25.92455712562693,0.0,-79.06058463146235
-36.36754825755056,0.0,-50.45888978327034
20.10582594975714,0.0,104.01713259897231
-64.43669233036103,0.0,14.013248508801407
37.507600144278804,0.0,127.5595234636679
7.76135779040146,0.0,-64.0942147217404
82.45404826395162,0.0,25.780425842291738
-31.35044602423016,0.0,-9.81274981452069
-15.201084117208948,0.0,23.15570562891952
43.886182548613164,0.0,87.72494601894789
22.907177266154292,0.0,18.674649764299808
-70.48939190993559,0.0,-38.42635609560706
-17.744170247646277,0.0,-102.35655392523245
-55.35164261160141,0.0,-42.40634695983298
2.305382783532526,0.0,-19.95296811784561
4.814073076161379,0.0,189.25751190634853
41.58124806857882,0.0,40.70171308777988
-92.62922853214019,0.0,81.58829399927657
-6.935038081631366,0.0,8.717551478278999
10.541665130383263,0.0,-37.84770767811839
41.57586044611223,0.0,38.6467729113003
31.550621869258137,0.0,110.97320360611022
-7.778176891427932,0.0,-13.732296999793775
-26.155256722741978,0.0,-4.8210209934536605
-135.2085752818327,0.0,123.37659309637748
47.78788072543075,0.0,67.06959575277146
12.697160465241994,0.0,14.586765959405813
-39.38247746513049,0.0,-74.89692895190025
50.15695991515784,0.0,-17.39394780438163
66.67967945671337,0.0,-92.277139585082
46.79647373607044,0.0,59.30988790920241
14.562120103434925,0.0,-27.66864221830968
-25.037967643958016,0.0,20.480068689514976
-17.23003754031531,0.0,-68.29780873241643
-50.63429787546349,0.0,-89.03824550031804
-13.229045910337781,0.0,-51.18699656916826
32.119100814265806,0.0,24.051227728024898
17.93141937125958,0.0,-110.58303633583125
27.923182573893797,0.0,32.40533419945591
58.430807507305474,0.0,-96.71460859458871
-55.125730793262605,0.0,126.51934325691738
-1.9944765355679956,0.0,-15.156911685209987
-24.20981123270969,0.0,65.31841901910312
9.558879305170983,0.0,-93.49608594651956
3.6557633307473907,0.0,-13.231328362154972
-75.48009935425686,0.0,-29.711741475783217
-65.67957330088528,0.0,-32.901150511033606
-11.982886862885842,0.0,80.7540762123975
65.86005407446108,0.0,-29.988481586091783
99.27345606394367,0.0,28.140996837119243
-80.95590693567644,0.0,-60.19207974357451
57.11820139321884,0.0,53.638658607998764
31.882314456156568,0.0,185.80389622720762
-75.50555985974155,0.0,-31.400047734983453
-10.319504230783359,0.0,-18.23149367065076
42.281747223589164,0.0,-12.83849613120591
-20.085084405493692,0.0,7.219714858188675
10.66889959354884,0.0,101.82823180915918
-0.12869950590960783,0.0,-92.7824849865235
-0.3832263230542447,0.0,-26.954804548799423
28.729886732817604,0.0,80.80605163162663
-32.11790254791125,0.0,-47.229493997670986
-72.26509071506662,0.0,-110.47474801361075
-71.83140376830738,0.0,-98.48365571055399
-99.07382364068667,0.0,-76.92398211842291
17.588777584496736,0.0,-50.67010002252906
78.8772778500642,0.0,89.3986153091124
-0.14803705642207804,0.0,0.5188933120378215
-4.4985288015991065,0.0,4.181279844116649
42.983467333946265,0.0,-44.73883359064371
29.93575609865995,0.0,93.34881089442945
27.615638467587228,0.0,35.54833541791223
-36.67908084555344,0.0,122.80741933616424
