-30.66747113294232,81.48408873251556,61.92185340061199
27.494731179833447,-84.3693981710081,-57.456543881728734
19.912647182154704,53.89843994884509,2.1750523705567866
-115.67324730910255,-80.04528579153728,-89.14259793305997
-7.7840773683582745,-111.4123612317969,-196.25857840783806
-76.30956375960862,1.2688006333832444,-17.40386983266834
-84.40553004202039,-21.19678423891869,-35.55239226247484
3.994298411754544,-16.70413541826907,1.0829750756802445
-15.352809084876165,42.429057753811236,-70.51620215868816
12.410388253310908,-23.15594101962375,-88.88331244001313
65.82041854454785,-14.945052665733252,-37.3003391605324
47.7048028615708,11.450862284403996,44.161469038766604
43.43080110489325,-80.97498549089097,195.72306114006543
-35.73289938166817,3.448546201960212,21.80172964420178
23.730822712361572,86.47283753869633,-9.019959102510278
-73.26391472524622,-13.905901496868573,60.204655274028894
17.01548279270656,24.717408641740764,-60.819796099743876
3.584196394293056,4.024501417429165,-62.66780332928181
139.26689646453366,-10.803303115259661,-106.2100154818879
-36.578757315407515,6.0872128971548305,50.399277540458016
-1.945360579384121,-4.501600736427654,112.09133270493506
-110.88871805653082,-16.93975361940315,-61.35151714338602
5.121312184558155,14.926918768245914,-63.268876136948954
-48.256078843170016,-14.565244662385957,-96.25804279723084
-68.80922653524625,-33.160341516567925,-77.97838098159063
-38.262555727971055,-7.383967002114043,-44.879775397422385
-27.287910879746345,-16.985171200374058,123.47079438100921
-17.562314466451937,-0.6603530099848703,95.40617588025852
-38.38979942592628,22.552888489391357,-7.44037813283635
80.3317495775549,-96.3593023625574,-49.08734855475519
-40.736064592383336,-27.979221204613513,74.70568171704349
35.72079697701574,45.6208678222601,-26.541062790306903
28.203601041717807,20.210854900890826,-184.5713801774814
25.05576195817907,-29.29436474480278,41.67066730061786
6.653720334640855,44.44180010880395,44.506749302557935
-33.871870861486535,6.788673629307183,105.11366209343119
26.169137151840815,28.786912978483176,34.70183051799266
-31.920166242551485,17.741465311839214,-23.259674410608387
65.45157187190969,-11.45361815636071,0.21360715803383468
57.19482417376104,51.66192783201282,-64.70673264168049
29.458567237096638,-31.519113786422352,95.33065377178421
6.3480066431314155,-27.595099599766186,-72.6494430313009
-65.48897507658086,0.0009516720135667848,36.13508861724136
-0.4630434248359533,-159.93110505810657,-91.58719454046764
-12.460556884987858,-14.860640768717143,-57.11933813680891
-9.99767587198901,-77.66318916135704,-0.9605073096323127
-33.27398309886484,-27.00432438061932,6.706110436689934
81.07601153125083,1.960224282422903,44.12271428702928
36.35975187664104,-11.936243664461674,-48.83124538885813
-57.172496590910924,38.56670975311561,38.42324746348014
-36.090403737071064,23.705562888408558,-228.81754273111736
27.317922380607556,64.92958858651484,-70.51446924369743
-78.51352079991238,4.674410519814134,-121.95021546222954
-63.4430605475927,56.22797383761756,99.9877441019352
-26.643938368750693,-24.617879243267623,0.291728744890647
52.463142472538635,16.412347600819245,-54.778783004362516
-11.070037066712239,-41.63271219999732,146.7338567120823
-20.907757077215162,-9.578803916278462,22.682297215206344
-19.46878220511156,-23.13036998231814,82.98658494877814
-58.048722495645734,20.646043573362473,18.732501600480266
1.7234133193725645,-38.9507632536963,34.697681105909524
-11.534220235846131,32.60789237622835,-19.744924205650058
-5.937157938203628,-55.57432723721484,-74.22161742385293
-19.441044321540442,-55.41903335831804,119.28058689218153
36.59817264005636,-63.482041687907994,-135.6006208189011
19.82335922823465,-60.47497859490802,148.134955417182
26.49410123010405,-0.8972697778924859,110.7296455127216
-14.265839906241357,-20.824212015915787,-55.8939530664465
16.618391471107802,93.6674239616095,20.80019220280927
-21.33743253567809,-51.90050816005268,-112.36044423535388
-13.57791082678387,9.086369906515928,-82.47957701818487
-13.877200922893628,8.649649542099462,-91.46727759863282
7.168787094359182,117.97961495044407,-49.29778691459136
23.965733129296936,-38.2153082143297,64.02249378519973
-62.03095247316435,-79.47467817487151,-27.973316319555693
-36.5292483895089,76.96691619541039,47.4461898392668
-15.901227698252088,23.451788060033465,-88.61886653372186
-13.987678792931565,30.61573789836265,17.251667753006938
9.740427668115185,-32.64852149717907,-71.49553264675757
-37.53489871235644,83.71601210693488,109.40992264798437
34.19149779368082,44.543731883558,70.85857616731359
-28.229578473497618,115.46648111591587,-97.96063022835202
-40.053151513174704,-48.108689323194,74.80780147452396
3.6638375919068387,33.16667499230965,-20.647886199605654
9.73496647414135,0.25168682203410764,152.45972807545505
-60.600251492786406,22.708676261153766,-57.97062019188047
-51.58916066379774,-33.075330663286515,-18.857001135269527
-105.96362955318885,44.16242788286087,-58.92670305946207
73.81489785693968,11.886941642112594,54.59051232878326
9.649456509493962,66.93501728190701,-39.64182299994582
26.421614527898086,-5.674704870087006,-41.506873629542724
-157.25471753366327,32.74448706017133,-25.850679668197262
9.853623872545135,5.309671760897853,90.2171975077773
74.684149729266,30.478182413395484,15.029692059886164
11.473526972315494,89.71979007055332,45.735221525949605
-35.559208081888436,72.93923089666748,-148.92782985010385
-36.26874304483683,-4.758817498412827,-105.27126190715119
-19.2750426549984,106.27859890641975,70.15611731991778
-7.387804890945351,23.671286244242058,-144.39322490300776
100.1607301600508,39.44272657322385,142.1847521752169
-10.436241590635326,-108.31903830140052,59.0356633413053
36.573892829677405,45.29118526795442,29.78699622661588
-16.366878360375523,-20.033127383554866,220.19521429203868
-12.80827277636544,7.79591319590028,101.82866043294607
-2.7545262233330012,-93.28455282412406,126.81004544906166
12.421355498755823,-13.828122934107629,-26.143882563320126
-46.386894708293276,-79.69136833320472,-201.34989554093337
-15.898854370903306,80.3356329319279,-170.03757760564932
-57.268318692855146,9.302663963122573,-7.497295531220026
46.49301446281071,39.04097385306829,-6.19960475523217
15.382848142414302,-27.86201750702021,-58.8408477856566
-87.82934596495252,54.38958767556791,117.96512423045606
-26.13350401667483,33.60689067991212,-3.7740820312484114
24.845418631614745,73.59219956204036,161.27224460819565
21.77744185922635,-48.106397953514005,-103.65108975314732
19.167352760656055,55.11452711839664,138.63164658523402
-69.31837116433599,87.88155307316666,-42.48076412868803
38.298681883606776,55.30404105682069,-56.69272887964314
13.490626003079246,-116.19581968829704,-70.15872155309894
-39.53360548265562,-29.4777349986128,98.6150672098848
85.68796311993445,-39.47642069611506,142.24370650320398
-9.18609353785067,-49.30480652458845,-107.45559996916703
23.827799593991962,93.61627346567961,25.20102224526604
22.346995116704598,14.013726398843884,1.3611918363779285
-77.7588174910678,-56.56247402355756,85.35341061699368
-71.76417337842467,-55.6870395895935,-90.68525649910003
-78.16607726742251,57.805986617459915,-121.43880627199087
96.78410243732452,6.316195941257499,-48.69521619897114
-47.728868365199865,0.2886437610600844,-34.87789518452978
56.22532572101119,58.69749894765279,-157.02377566402353
-29.703036029058016,-41.33641000475067,83.86983401338306
-26.317831611709448,-52.02893215811527,152.84867776771137
-22.332307505713693,24.69846386291825,-10.09805974729862
87.10829491853,-35.60452743181336,-5.986653835278079
48.30772231982801,0.11676449657951928,134.23288275594948
-71.8318524834268,13.39318526586215,-232.1111357134772
-50.46941999069323,14.954123909392944,-78.89122228859732
27.78894766080084,-4.301999066502203,-24.05626832968369
24.237287385045118,3.7199213999916116,-20.187300896929685
-68.14146625995913,-16.313428851048894,-46.52872638380231
-46.79523985307096,-16.806887232626355,42.22750749330604
-22.987371497921455,2.5132093124996455,-134.50944342889187
-20.79737167029747,3.1063487845631905,-29.929282823238996
-31.26849176410515,80.86657365158148,36.11523499223509
4.118329939590592,2.939758159563929,-58.78601080774191
1.4897900726455695,56.52508660576496,-16.071786237702423
-56.35328030285671,-62.17345990147706,-1.1256061419995513
51.66239088647835,-56.56927917636663,-131.27122736736163
-20.478391493696012,-43.09698239786151,102.41440897853737
-3.4001828565959853,-98.75857671362462,-37.483236563659766
30.091603623820575,-88.71370885631026,-94.17638562781946
25.003787565782343,76.49805866983766,64.40051250562719
47.12562691818179,-11.326251756143948,69.27355541837599
-13.711068677001737,-83.42641908790971,46.47523364133712
-56.13834598032219,-51.07433088478256,8.557600442832214
-0.7121165273222295,79.24723037613006,137.6516000745903
-42.559810930265684,-78.38395126567778,-32.46211871370773
28.67609853283946,-19.422487935752223,68.83123041128971
41.38878891347355,-5.507273801509122,-63.68071869604064
-21.763400594635346,-85.23977127363558,104.0006357956244
20.955496813353445,-22.23665411557902,-87.6128582621194
-35.14007193873647,20.585235288398966,105.86991946277618
-45.975143596201754,16.977021706015893,115.52990515015922
-28.623323771018583,-79.14539385888766,136.73369558148428
70.29309607786203,9.112382116475397,38.54165450378995
-101.51640591276545,-3.181993103622279,-148.42062066191605
31.190654271460396,64.82332719373792,24.4940819404104
29.74386726575235,-93.78432330711779,-123.34994371889931
-15.290148257596254,-27.015834288916285,63.48450839570735
12.305798733185894,55.812187094376185,79.17812308079623
34.281975960789524,-26.035462997033637,-80.15017712969225
9.344777334521474,7.944010897370051,45.56587142449781
-46.09846351223293,40.81300719617303,-21.582664688562655
-52.647821047364005,28.301148838317175,-81.14267196156831
17.804607567794125,-14.805890393975146,22.912116580811606
0.24231400818304416,32.44895825738172,-175.1945669805664
8.25243149561358,24.400790702589486,21.924354673086086
63.7135190563718,-17.205956532865862,-36.78073601431615
65.5474693468179,-36.127645080475986,-21.781981190257795
22.119101699908214,72.77838547640205,138.31850429101456
-18.402805046043927,27.809811587343404,135.80148413502909
-49.67915834366049,1.5603715062793213,19.044163509414492
-2.27473669193917,-9.422715511911655,-36.28890508983088
40.50284621538836,58.79317364941669,-124.73251008780909
-77.34662033453236,-3.290286336401783,-100.26279702341988
-35.03712325279282,5.593296547073758,30.445456570028124
32.164419091990446,2.0990529104919062,-30.46689825640416
-52.660554952823446,23.691388223483337,-66.43688384229152
89.78738869343317,-6.030084045672391,40.16074872519445
-34.35976399741719,-34.61844239603515,106.35439317282223
9.055532114588226,-24.929443583549464,-36.25143693458062
48.544218764683244,45.65433823572075,-20.549646511398386
8.551495136736465,68.79718212471697,-23.808205058106005
58.79916928898212,-60.83889404758249,-58.994817772440705
-21.523418962251668,-46.757923910846635,-33.4706441818199
34.645821044293015,0.7911505627641988,-85.41509819574216
112.0560026053913,80.44857911184027,22.84995508705854
-73.84530945022095,-11.097346463851741,-193.35304156134197
-6.0691664384493595,42.21707318984519,81.3833479453069
-27.565339282891614,73.76119824937521,106.40906362200408
24.028318654779792,-84.04723150143298,-25.7886780752987
18.127223323345067,-79.12255625646499,-74.3288983542623
0.1805623249187902,-59.67339598346566,101.50142109567389
-88.04737969329373,1.5608176966020626,30.334482680299114
59.12995694087064,-61.08463202445563,6.654749363476525
44.94682452274248,-1.6125461313654912,74.24537467004063
57.90342528278652,35.950943122434296,-76.01590896554247
-25.685946940928535,-76.49497687011541,-103.36722122889088
0.6428211060564946,92.01798437011217,-111.10564277098563
-63.50522704582235,30.763149113681553,23.77034061627336
29.00143313448688,54.73372511377115,94.96711546999889
-5.770215887781804,-26.302342963969178,-92.95802341486169
-51.880165548780155,-3.4781134596252934,143.14889303841565
-32.756442745402644,25.909154874990765,29.16428940679632
48.07342137306409,-24.12997496541848,77.76795760495992
-10.721931739263695,24.877825867036314,105.2060366652597
-36.10807784728157,-77.34566050802732,-56.104478526891356
-79.08099325511483,72.73653835017187,-171.22614192926028
47.818021820504214,111.87271957098419,-174.61960536049585
44.68292891679359,70.08671720903132,-19.979112142104725
38.525243694189854,25.35658166221016,-62.67048574057893
-19.729188182108214,-37.07232703199251,-83.71317753535268
-31.12228257377337,31.47971927019656,-47.51758733017817
-83.6584050427039,34.39545541305716,-99.67537893906731
-77.00714887224828,-58.23690746491202,16.951113360319717
106.74636418095909,12.38534577699475,-7.7018583074376945
38.01254344877425,25.73124133980482,-27.45081307520401
140.00829066802248,9.902713264041722,-40.89301230091357
27.596949202632526,-66.77683111618174,152.8859483707987
-20.571819936517507,16.218334875357254,-147.445406970139
0.3574305475334214,31.34918320707189,-47.57630929568995
46.66777088166473,1.2350241961140187,-90.7901633589244
-62.934138785012394,5.2021482592433665,58.91103252744724
-14.431278573627534,25.73916897296843,86.64106676378984
-100.55749085815555,25.15639704279123,97.72047289434539
83.8556560063112,112.95243849307508,264.91199003879217
-0.5898947526041112,149.82560469215625,53.40314140240893
12.302180885608342,-28.416738316996316,-138.8657555812449
24.365295608858155,-15.8958164440874,65.61113257858203
-8.625628668816903,22.740835089428927,-32.219457278050406
83.82145226395515,50.313714868642045,-84.80808676620556
12.170019588088657,-58.64767654711092,-4.419849787219607
-7.879813544204561,-22.378669818298633,30.317621602779035
-55.71045860397009,-18.022259350549234,-45.67373305497488
53.76511473991034,25.749691262971186,-1.1670135327638655
41.540364540805584,-26.780696373937275,-106.06412181202685
-108.03661573608893,39.65553672476224,65.12157698286957
-34.21746341073303,-133.47876733965467,-57.09457121225903
-35.075186710292364,44.45764632187545,-74.42845543224341
-49.97164025930422,30.824386653198182,83.33717425627616
-13.40044676838907,-0.22704604956701907,79.80285558436532
-3.4971492442364895,5.041238379698686,67.69584327516561
-2.1715349671931925,-58.82661284098924,12.206473112152558
78.0331730107019,42.94880398070099,1.8031104577075805
-43.564280912099804,44.06880982701599,59.744348950181276
-15.08670468344033,80.99894684492999,-85.6939027169372
52.13278503386856,15.559286965468297,-64.65542145615537
3.1405682631036926,34.76190127566769,-74.42992182347753
6.099056895891359,-3.7799257514417124,59.27589888222456
-27.5800758464588,-33.27169047898681,-29.480369079748144
0.13648926087482047,16.67005898657527,-32.55600172829611
-35.63288388606992,-85.16008209911641,65.17597760815104
61.72334165447102,49.22559563319731,100.00458988031548
49.80465783502689,7.71381379580425,-127.12906162407651
-51.67485501605874,65.53380054019287,38.94934468739153
74.88957596464387,0.6033595603319004,59.77922112965823
10.146099694102046,-10.55316235962266,-62.58612598556776
-88.88412830943699,-10.608317390368914,-64.07621527888595
-16.07747376574484,-14.260940924763146,-52.03624943641296
39.26271591343295,-11.770929081750868,-59.04868651236475
61.615857245696915,25.900923893451193,60.336435190030684
25.340825283220592,9.073362721777833,197.4726681035465
-31.283678916204195,87.55817122032154,41.585569266887006
8.005272805571972,-20.60240718359248,107.65751436609499
48.386000565772875,-40.19252773022554,-177.8539998843548
24.355895639857586,-5.44798931442526,48.31239674718492
104.21336393539875,15.748624975565741,-6.779140248738982
-56.762907061355186,-31.095955588193753,-30.185423076400518
-6.315546826126198,85.40278119035989,-46.227539900461046
-34.314284603058894,53.22997051727987,-50.647828589941035
-19.622535867436646,20.602058010027847,109.62379878976529
74.69275624555979,17.97900421270795,-25.592714083822656
4.303115274047508,-103.9439539031021,123.78881926794365
-50.64563971570494,-11.56004914551733,53.568271540218035
38.26603812568776,60.553134853511104,-10.398199905136838
-24.939217514790023,-53.12617671823321,113.2347338001967
-12.89830765939666,-45.408497956359696,3.170685833522934
15.582098035582392,1.058700218635306,-20.819098337013884
37.490986397957016,-46.564735294830875,74.8479440984491
48.06697921131911,-13.371887672980382,-13.923561317097386
0.4087950058441641,72.99535664944389,-39.46445391671686
-56.044359041416456,-25.758076364769867,-50.7317525284216
31.034220358932473,38.54467332831529,-43.2861264958355
-61.472496175128775,24.112955814154887,-149.72242569994592
27.076704076876013,56.36057800737413,-197.85659349980574
34.22341376498345,-30.273730301833133,-89.12412259642055
-40.613309631979135,120.82087561733728,21.144686674055503
-17.516563623677982,67.73365923181292,73.2774453908142
97.58288242486927,31.405502440354656,-7.0878047200190455
40.924511474240084,-30.98179812215662,58.93949952758968
-15.630872602485343,-90.01502006156397,-106.76720848895255
68.98497649081051,-14.739696067736366,55.37723103812278
-23.704076320166127,-62.36425294591768,-126.98300490195979
-29.34172605126249,59.53932982321057,-47.031576409613436
-75.49391785849497,-55.59405206552807,-156.3502645509692
-12.357944714730834,13.870163899698342,-118.80524793052646
9.205456561133966,-29.7138657760218,-30.11945435966651
-4.74568629447057,20.92094970012665,-75.45984248987338
-9.484987659537932,37.69396518849456,79.0269216679389
3.0812056791136926,47.73510465171673,34.837318757213424
-46.6831317464388,19.456351080961976,38.09893712013464
-10.127059185429221,-28.515869685532213,-71.59817446393855
4.941173467311138,37.60968263310988,-7.1282582674928525
5.1970166916184235,48.42370383275817,-137.5520864974085
-9.356979324864898,19.729172622335582,54.021237162001476
4.66957354033952,-16.994512861370854,97.46753727631456
52.482147652162745,51.772619478546225,1.9377445349575564
21.424764668874342,-24.379817177630173,-87.75187058783315
55.13414781356727,-30.522270694136754,-186.58474335997562
-7.7745879840528405,6.3342179436121455,61.51505008566763
14.349173564038855,-21.802963650952588,123.52542678846717
23.349419145257773,46.23186189618976,87.7582196201718
100.35216506921579,-58.70984816567619,64.11622732536162
25.269566459720643,-116.53725589350181,30.313472845942496
1.8421667901357786,-3.3357815932864763,-15.720303381721237
133.92892638114404,7.36777315643241,62.58054310550163
10.198753688060721,24.49867271070855,-106.15083139692167
-36.09623712839816,4.129847167889757,89.99761500862341
51.138726349667074,-11.224206039600762,-4.2810043654320005
6.71039774911267,-46.57981541889468,-18.340526620628374
-17.61167053083873,34.007501962906126,-76.61193385257455
0.4911294313790073,123.53240839214321,-32.61123478425333
43.1797761877451,43.89300603158498,-131.6726455902664
24.995840340391748,16.610020393122714,-99.00564621313984
-17.13847873931228,-36.93680914786272,46.5625052584032
14.757971625798133,-20.063016459656506,-100.81113084590783
52.125374379587285,-22.64175768059439,-39.33286322218364
8.910610328135995,60.91450565448616,47.53030766132831
-52.82718688046937,78.36085072991014,-19.477368322576538
-45.430760043206995,-97.05133710442435,72.39593551620388
-17.068662841946868,-26.176720054229868,-133.88420053976915
20.258817880555938,-58.44671960734726,3.4903224761750438
24.222104142930203,20.630505001830645,169.84173876864392
-36.275663731629734,-13.664045066101723,-12.122124480714838
-62.62668135059931,-5.883265403807556,-53.51547423343121
-8.497350029976525,53.35064244837312,169.05359430078414
-1.0778992286473574,-17.115712031207067,-25.7405728958713
56.832550187307326,-62.005007111131974,-35.138643518890646
59.7547885368333,-30.097274527647734,-63.4698974747971
-20.4647611188015,52.77122984981651,-12.450260017485915
-3.900214253586586,-90.23522964795937,101.30898116833795
-67.5365597894329,68.36949523844282,-174.76024969168782
-38.05734282027495,-13.3160114246224,-107.75667190819232
84.18181291466522,41.75346208618145,18.76941288580493
-20.244375653803214,48.427484546758116,116.9849943514723
46.75941212862282,110.53781393299576,115.30972903089845
37.41308594449622,-20.375398721339927,28.175107375497756
14.648244523683795,-3.0114894886916144,-51.634903395712826
-27.35502753436505,-17.140368683777275,-49.01791169504583
-100.71991475199455,-58.13462850711411,-140.1985912888233
-30.960620560154624,40.17747783248881,92.15065889712486
29.938789248312474,-31.108463200874866,52.64215929112257
7.927291753700133,-14.231207494007442,-50.79687128612386
-23.208562507720572,-77.39749859852397,-71.29460411658877
-10.378838619847647,18.664255463835914,-83.91552296746853
33.94060820856604,11.97788955129328,17.972028976250666
14.764761410943702,-8.821315870455829,51.323743539037395
70.22692490383474,38.492658421429745,-223.1032498900443
-32.43637176617267,20.63766634323853,-79.63298643296669
28.672672949909412,-15.661351256098378,-16.16023144370326
55.361517301145255,8.836415669007769,81.28902051282657
-15.821196265030233,-103.05780522906534,124.43715458743287
-1.6029807445657085,-52.37228316960767,117.31035552852099
-54.338113159000756,-12.776314161029264,29.41844388266612
-114.10839572509242,-133.73680112182853,-125.46020404058446
-54.20023750939379,-52.85550830845948,134.744739086209
97.25403040982411,-47.68359127372815,125.25497739753824
4.218641520005466,17.42024258940427,-19.5343665610692
-22.539318396214703,-16.98082687780876,-7.248895127316805
72.91804882981359,3.844751566639626,5.5778728088632
-40.508561514658865,73.02347820203971,135.33437447208152
-12.139832125809576,120.33707303142872,21.302175606636123
-25.260613719647985,-2.4028838734239777,-81.38853393081814
-12.259645117436033,-65.13771613072889,-158.13447896738708
-34.5236127927683,5.399349250937348,94.32976533046894
97.0938157015956,36.07435256216805,-120.21900288926426
-23.755048271845013,1.3835194548357026,33.38494531415095
84.58032842655334,29.902369714807588,-31.072374008608097
-53.461681842754494,14.241530132067462,-67.62667305167552
39.322974644092575,-17.265885640488985,119.71244068487243
-5.293595526425909,-2.206670506879318,-25.180832208278055
87.40392548359472,-4.953585960480477,-22.58648024917588
-113.93240794019476,3.9468970865090944,-42.49493197677298
19.024503786040952,-68.96199660908111,-37.475281258750755
-56.49621450596026,-0.1446589133450016,-29.216116306581394
-72.5551631389331,-51.69906832747265,-144.40976919684863
-21.33275725019086,34.720536569013156,110.31543204655678
129.51654362277083,12.648077624032,94.96583657234345
-6.502257821229007,-44.523761637084476,-116.81218267771725
38.24691043703595,-6.801103142343274,80.28614298232249
107.16483608228646,34.64158060815535,9.29922376026941
-29.604162280386113,-42.63517568140965,19.89221288493301
-81.23026731955827,16.299000071183706,62.05932927959721
-49.57707316787105,46.72306169285644,-8.165890598124877
77.15998852812656,-96.30617190592426,64.82072690172294
-69.40190154855127,-10.796473763487395,-6.256506192293729
-20.206217892169388,28.634945370491028,-110.26896165018958
32.60746495745507,-41.856709579424056,43.25147287448194
-78.36602131210041,19.31455041463092,72.26890805698598
25.332008165832605,-12.126915034790366,14.111311630956283
-105.82130062684148,-16.101062801383485,-11.910103371216753
91.59501734466406,56.45256592936022,48.06758837494165
-0.8316047290043659,16.57057024634819,72.40048379332568
-54.6625368237762,116.42092341267374,-139.08014967759468
-30.94554156820019,6.142727220740643,-94.41208465642603
-65.62651541006211,-14.137444076265787,-5.595954237914234
-74.98419684245677,-13.298470274651859,-73.36011012906442
19.933023861107127,34.57553012546928,-143.44129673804719
15.438240557094238,11.73383686750679,-45.645979330210906
121.84055842348742,-16.54446895892417,-117.34875885779505
-70.24007986913449,-81.13300749927383,102.95658302400889
-21.400657109923717,-37.704304925747685,-85.0503320740691
-21.689913032611273,5.460298125668098,187.39484387647545
1.9180214793148105,4.062602874335906,82.64260771831758
-3.0238492010906675,-59.693109390536456,55.51886640622029
118.34533368166575,-27.482217228049045,-41.010287719448954
37.55249664393611,-9.265026009432562,-79.76093622088057
39.60144784425929,-78.35001700479215,-14.554184316126067
106.64541828820082,-58.180395400470495,147.5645769381427
18.628695377732953,-24.956388303410783,13.441633191272418
75.00476806314448,-48.177350924481935,24.22404985384982
-6.817713981780125,-39.38562043188899,-4.898870015112828
-16.002527058559526,98.80058861775993,80.40570371856838
-6.4031598156905245,-35.54718724389838,-185.35153631932772
25.6739704795966,59.45021790265176,-48.32880338160579
-50.392705753834065,-23.189138667811445,118.61608903610748
-16.176833894545737,-32.5549578527654,70.19074986501842
36.24914388838652,7.573243258366892,8.445706653777458
7.275540659266266,52.91407817066804,1.3470477948845114
43.420281374779464,65.28368056725824,-55.276457377928885
48.76797829974934,-28.59116419502809,-37.1478393758043
-17.428287555546607,55.57250032666472,26.212874763956442
8.914935656694965,-19.937137137815814,-12.782704022378665
-57.93991822918433,-5.193770817968854,-94.48821655471443
-45.85533544385825,-11.449540362272392,93.75031817622047
-58.43956618217347,19.746147526756598,-94.66070713542472
83.74160371674468,16.47438853955637,21.226398277464718
-4.19044070543557,22.869475156472564,-48.295975186951864
30.451809520398843,-57.06068182854999,-11.61070134745691
58.890698975906695,-28.489426694084052,161.98213461420968
42.495828915313304,-48.08151779659625,88.7029396857374
29.349092456632864,-19.30219125733422,-63.827533048054725
13.007343322579947,-5.733873522474742,7.073367780411874
-39.20508764235869,24.567580019326147,-233.88222457773853
-9.169865249545275,69.1980151577196,140.5107821399705
-81.78630384474843,-48.074753088634935,-46.33643508516408
41.15631493901225,-0.8352115700958958,-0.42464455352145447
-10.06179608215327,46.792584346537666,-30.66735638465118
-53.74242016128723,51.30191821166644,-0.5710741050819715
59.4249388631975,-19.466298841081716,186.46915040156617
-14.618726858792,71.26967569568394,-79.85033545001092
-60.53142573672679,-33.552709875979254,117.66844437382322
4.694340273762216,97.88507993883343,73.57106946527291
15.013401675462474,54.331245353695465,54.07521686079356
-21.450528135152812,62.63840938941272,-21.29322352608142
53.15805570610939,106.65764330348529,-97.06362888026753
-30.63354700905486,3.347100202609863,38.71486211468283
12.984899803685357,-39.39390794191733,111.34231090598391
28.91937193491387,15.486336794520703,-67.22101181954237
-9.419582305651524,19.126329234658034,-10.976714465716272
31.934683137141974,0.283245027625231,75.71887926932438
-19.15906266871672,-62.20185179487685,-23.322133054856643
-17.736341899146105,-7.848128244219835,86.30087962166529
31.039679474886324,-17.72574220639636,-115.86265831715322
-18.521544567308347,-5.6414637941642525,-89.26728507568241
-84.63648949093735,-69.54548464692112,123.86131589539012
-3.3669095205869732,-46.99701237800105,178.6015119999104
82.71297886945564,3.3918959739348864,-76.40543578237543
28.609305257304218,94.2787361510831,5.174995005480119
57.605794674128454,-53.818636335866024,116.91422285687129
-28.451429290936737,5.912022198669551,-27.031180334206216
23.539628098126542,-39.385058344911364,40.88561092670149
11.66922197718321,18.660117162212032,-89.20712167349063
-40.09543520228183,38.973717426938045,205.00241614902077
-73.32129732134854,43.449721716426716,-25.503829851378768
-29.469245405966817,27.560919078120723,41.81830028538874
-19.68176047801354,-18.608664347473827,-82.80195094090546
-95.82706122525771,15.37592296810168,186.61206142526723
-60.60638360313413,70.80120664689039,61.295044257647454
-143.27985407204494,10.740585513687135,26.88862777579736
-101.70379794111173,75.39283990057623,-59.43628980740828
-25.889263507068904,-11.62140819911473,-54.33304219851685
-72.50993462986239,-10.192537705825211,98.12387424520237
87.64261518466935,-6.182291648797586,64.55716194035415
-20.310237995714626,-96.77405461259904,31.18246375819658
-13.238028318119419,14.406878923099855,-65.19280631978853
46.71170375983795,-100.61366299931169,-93.64339021855876
-60.931301861141144,-6.588955058922316,-63.01184459754613
-36.68963067591323,-61.583542581330995,16.14195836217066
53.1168854640976,12.459538948987065,100.23149499243044
7.349541381525326,8.044016186150287,69.54970950296227
26.60847584722473,-37.48472685083608,-70.99491247917861
-33.023161533670894,82.69701231089029,49.857194586055066
-51.4234102828389,-84.68693409858412,-122.61333084025075
4.2164627420943335,-9.223642315355335,149.65474609923356
-19.88989229988234,-55.761050665601054,-3.4095416319396694
-3.2184433111276465,-69.67219805401919,-108.87808122886479
-18.437949830217775,22.15610938174816,51.01576720321226
48.499131531632564,32.51949841169661,45.05197395912753
8.787130543314827,-38.3681035177857,-13.611899924727455
-21.434625298878917,36.6322253588002,28.172784555561005
22.509535400864543,-16.852390187862248,64.11565990461553
-65.73716205690575,-108.14461404367302,-117.7481766804724
52.03245639284383,-80.34261499832995,159.45224236717414
39.930324811356414,-90.76304111921667,57.19863737489291
-25.28646314288028,-6.183581303239564,60.06433950546277
-42.228212212267216,-66.5073803967422,15.782213559264061
7.181221527116658,-37.602461535714596,-28.36386422317247
5.389811616187538,-72.26240199884779,54.3748517105038
-55.12370152037692,50.375179524973625,-91.23056219696902
13.528008735974902,25.31780797495264,17.81433932604917
48.37266141494807,-14.475690000938405,47.31645524203756
53.05005228050808,33.60480878459057,72.5966709183486
-31.048159484370906,-1.7401584693079366,109.90861733430572
-31.514099568886945,-43.841793616763496,-163.87253650956904
-43.91602208825582,4.622819494306051,-151.5046894429302
-46.27512277409162,34.44194544688729,62.77582216438927
-76.00829423976101,5.641523967594887,-128.9248964723938
70.19126514953047,-18.725775909724952,111.73916381727497
-31.28122974291781,38.86018001555993,95.19821091084249
17.06590249462451,-29.68834417040769,94.20483720235522
38.17978602001646,12.074875920079563,65.06316285566426
27.12143047900587,-3.1237124744456093,17.494133509352853
-62.959070643262486,63.46284838702844,20.954056872342896
106.70774802637266,-2.002812440784492,-66.50472810952395
-37.7389589564404,79.01794889203603,-147.95014902913414
-0.6282551912887138,11.32450840949835,46.583128963843045
-17.243302250871935,33.59431970818192,53.99287564946849
-41.126254799456454,-27.92365841990061,-30.422364678841436
24.075455499389214,-40.39164044686563,27.302609576359362
7.643517007714068,70.99182163061717,19.38703463918094
52.301387183677406,-2.9595668841464624,-137.49283954647782
22.67967820424033,-13.403148808467213,49.495227030558546
-0.38244741277181965,-15.78210238107289,-28.070325451584278
-47.627904536641395,-101.23481601965206,24.57343819593812
35.49084849482445,10.739742320132425,-55.53385951097918
-124.05769548130938,-11.087348234623768,-64.12421025280418
19.770214648816022,-99.47612327640311,-169.55673108936682
45.527815430822386,-14.813848342518607,-0.9320751908690476
-39.33499511105682,15.893499652799706,55.10558007643769
-1.6984627779380275,56.05859869385964,54.553888475926925
76.79975827491377,18.939644554162474,72.47985906421293
11.88345832453362,137.06185704118246,120.31947228957986
10.090913039360641,-44.74573832571202,-260.8517834700241
-22.38241457404109,-14.322424002967285,-105.95816178208672
-20.30560096542234,-15.756650837762745,125.01727397706713
40.57660293056441,54.8446526204805,112.90906127536702
-33.98715722773859,-7.336482517895004,-111.05330308625057
149.97870890698775,32.49503430616773,-31.172956142269026
-61.236056090664405,135.2210264669013,145.00489145967563
-15.817796171376724,-35.86234702128889,-60.22629429822501
50.54339735009731,-74.07690749849203,144.10986606207027
-28.775332216932924,-2.2986478076321073,13.446860140633435
23.56969759198536,-112.50219442771731,-47.46250080147031
36.44432897633067,-58.698507768961385,69.85368178162928
-129.28133706950652,-64.5579316044998,-55.029382957151874
35.34697377038275,16.494578530405228,-73.8568303789248
-97.72798561584362,-32.71252545392546,61.993756371416815
-53.038856040826666,0.4053483535282342,-55.13467197320943
-56.64012646962521,-35.760344534867535,-7.988981956650768
-120.66536499239515,-52.870412606463816,76.80452749994213
30.842860048819144,-52.50258502633775,-91.17103904048281
11.478806969046861,13.972866781380603,-168.5304956469034
42.081910251644,-15.234413958562328,178.20234678454707
24.76583377286003,-11.529565391413465,190.33649139436412
22.640280061626683,-16.04311613944443,9.25666163668086
94.55698551846928,-4.61331362475356,47.104493263994584
41.876607754299386,-46.88785066929712,-115.76879332127604
51.92643636485571,-55.43517537612086,-14.404901111257264
-71.97545449507814,-65.30883973317897,-11.475195461197725
65.53615923986972,11.294747989832445,4.952811903230247
-70.0541666110614,-15.140031138955553,-51.405938107339715
-26.34142248494222,-98.65806855633407,61.498944879245286
-7.228440392231902,-31.324594824514456,-33.16140185740236
-113.61352989846421,-15.38298494497833,67.67621685213847
58.986838218457294,2.9609046061919018,-29.607451087275383
8.34811443445468,-28.117269483285888,30.352902626562965
1.168557598180284,-21.489915195147148,196.98677933014451
-33.465620398991256,35.90979820460618,233.87860355251357
-1.9706044917320513,-34.602908352008264,36.76969422326567
-9.141966899643723,-84.76640008733443,53.4195527324746
72.23347065365247,-151.55447726854015,-159.24262931962718
107.24360333257073,-2.3396263548553384,68.86688143340577
50.596179678127065,33.320821746085755,-3.283569696460848
-32.92323245603364,13.699205489399613,108.20192623618264
47.59377857032398,4.869743247333501,49.62086117746627
-15.77748255195328,19.870026692654015,-114.94017336108355
67.06450942591127,16.11914671838093,57.019122875563845
-30.109535568271166,-20.661493353482314,29.67444990056182
28.755123945637212,33.47076604199339,49.40925903778342
-5.605929887914652,-41.7633668789904,-7.265205775511601
-12.792184946554475,-119.93802621701835,-18.820109144376257
-47.46868165314011,-2.9944804374731144,176.23485945083564
82.45859969894276,-31.437236300676325,50.04630061991504
-2.220319543163256,-85.3892669488153,158.75109957249984
-54.92781583072846,-46.26027520166903,-37.41151445502423
-58.68697569046509,-31.285463469455348,-26.957247401539146
-31.84351853258297,19.73662168208297,31.767536707605146
-30.104570729384584,-13.074906199442252,155.20320638637665
-64.63264437086117,-28.149635486627577,96.0805827168275
-21.36782463092638,0.896601803548387,-16.88860011585513
16.905109832098987,-2.055747124133897,35.769536760027606
-65.34370550955167,0.1734509766086432,-115.17344312146118
-87.80493930862872,-15.79322898740755,-60.51596112119624
65.98234377480453,32.724707846374585,-77.23254136557604
-39.69364014705151,48.04164341996365,19.945578629908905
-0.41830501838696493,-18.45294448364296,118.47389686859
-27.839834924215385,-52.39627039288892,-81.40291862604079
3.626366854473738,15.011911118163802,14.149298199655908
0.5566732884555922,-11.861982379891451,58.31549178146466
-41.49577421406306,-44.013402075780846,222.84900379018006
-30.631985679844657,-202.20459043569,-14.676704035535588
24.00715314648573,-13.673002460091285,46.07865025602443
-2.4188366949770757,-66.41187146127915,-34.882295639006216
-25.323829833978618,4.968132348029072,107.02097374495222
12.186266721688831,-0.46257898161487954,15.510910620559892
-41.14320840653025,56.679660344700125,111.74951717814916
-4.261207984477513,39.35164540135169,44.77130532317954
62.648457008605064,11.735960470419403,-170.60786649908866
-108.4738251430679,-87.88612854232815,-116.37001551305175
-42.132296187405316,-19.649415918438052,-66.99527081334739
-51.32843918648652,-46.5269296365317,77.149503623025
36.29999414004224,64.4717258429226,12.695083530981881
-26.4039231311567,28.510107476802283,-50.63648535986792
-2.966042973978254,113.15934353435561,183.85732892181855
-55.00681603028755,2.5201180958186957,-86.1843629765208
-22.820774902075915,9.62782430103453,-88.6307205260244
85.89378538328342,-62.000108870347404,61.83313319233931
11.018938281721425,71.33806428440262,46.950784688009385
38.188291735200536,-22.353166360972963,57.94434485206436
45.73798638314086,-5.964872925150746,51.179176605516524
151.63913616093302,-75.7787394335448,48.95223874996908
69.22791738773479,-56.76384005137321,97.29018411317863
39.809302044230066,-11.724142897485875,-90.42400866078978
20.627762007046126,4.268374148813091,-24.51017530845848
8.584662002303045,41.09800709614304,-171.1422577904342
-14.391262291458592,24.82661390857809,3.906093528938526
12.479538625054978,-40.13694309669751,66.76493515965413
125.30924440739979,-6.528290780393187,-148.88349388814174
35.10464028454883,-16.087343014369328,206.99746478415446
-48.966994293520585,25.91497566371263,-163.69322546020197
10.910004229498451,25.93027434203315,-12.705635117083862
54.541460603385396,-15.582893767578012,-13.704798658278168
16.717036424466315,24.448633938207003,-120.77281503848867
-79.82659915717716,-69.93628796919347,-10.828903354028652
-63.0863624724003,32.7833152500444,45.05927905321945
-33.35825546380734,-67.1743635909882,60.52576023421822
-3.234125320674166,42.52421140302442,-121.29856127886057
12.644856026645265,-9.412902952020406,-65.16368968781586
-3.871600117770096,-3.839090296674657,-83.74691184533144
25.049509636310518,40.592366909354936,108.54469333721546
29.288381939782386,-0.18080543809498892,-41.10032801131289
100.14368860155389,-58.602503538031456,-67.1438036990562
-0.12317694479179055,-1.5454170124008892,-69.09773417480557
44.55894228360468,-10.954327697297957,-41.914608287097025
34.836760497982254,77.55131154871016,115.95806024604988
23.00777749507014,-78.49264940941167,60.13771732842884
-21.88488436673679,64.35776802268855,88.35276577495563
-47.20380372547219,14.935962517101514,-82.252712084954
-57.593553076608806,-14.289853637622537,12.783490873336497
60.67626374627585,45.07933572907838,-20.21730848204176
-6.229454857348004,23.969316164944836,-2.811908079343244
-7.715408323711012,37.49688759675586,-122.67911990919039
-6.605280447004917,-14.577803301529679,-76.2150369638862
-74.01272758659945,-59.804227461197165,132.14311023292797
3.813797435400875,37.1411474824777,-82.56711928480827
-10.954450397321624,-68.96029223659383,106.31900136836512
13.468060315347063,55.56905470747774,-192.7389888312454
-40.55188387449267,50.71576507748904,47.10127737881662
-39.724965375325496,-57.683903986889874,-53.10819318934525
21.458425586621594,81.93511600304814,58.21161582970664
-30.83400388577638,39.89785428434745,-61.29988466538596
-19.1593455360363,68.88681775957734,146.6497807110984
42.75778750909971,4.435447429955096,-92.6738189127398
7.86342767728949,29.98331946030863,-54.385953466415984
88.4167539953594,17.17903870175104,2.590479549637099
-68.72264883464935,-8.848271154204316,-98.62659040732797
-13.839584303114263,-19.375210746122953,67.61982311011735
73.18493461910717,25.812495585485806,-147.79705680844768
-37.81260903615104,68.15304531691847,40.370532428852016
37.268106701606015,-61.9445239465705,-66.20630445190645
22.999870873085847,39.556527869350234,-54.612086083226245
94.66888004500646,-9.83203047494388,-31.67461353271795
69.5550039353699,39.58453062468742,96.4457298472339
33.380676533293496,-6.210206905990892,-71.77930668336936
-2.777197920462275,9.688241084794216,-89.0277756333346
25.533900247916712,-13.436916652817244,-117.86051730577117
-24.33144889641745,68.25278122744716,-26.763079825117746
11.612516149832171,-51.274052392547674,48.660019273508375
-56.33535530212262,46.8803662550904,-4.33384490791534
-29.52620169431877,23.062597087507456,52.07780947727872
9.465307316478864,32.68773171718384,39.672821034189546
-42.94514635451414,34.28467416377874,48.20136495689569
-60.4706219402672,124.96873516511786,123.68263678345912
-32.44270044923249,10.189578917222562,-25.964786835444364
-16.43352965857107,63.28680507899974,32.36052664300519
3.9668235231468563,-26.971707108935973,26.372414498608507
-17.640841483961793,32.39973330908789,-60.04783684490867
-59.39434035030311,-19.23444103377374,35.6917351864168
21.974440100965033,-9.823744852702816,-60.188387520220765
-6.805024035004356,27.531021982075583,-139.0711217833767
-39.54848927970267,7.202569865838917,11.51719770565281
39.786189887027426,25.170286273387216,100.44700804479055
39.18464324515783,31.635883177165812,93.98004325409792
-65.36663659370132,1.047689534292479,-24.82282473015778
42.70719287851546,34.405248254440515,-95.7781186673981
59.84409626567382,11.001574588939794,37.99239066058846
39.921700671101426,36.86569083294805,-78.54754323692588
5.18601697885018,-21.858641915710724,-0.465349915146037
15.886168230000127,11.103107689684062,3.7525303542619963
-30.306058941032415,-33.06046010594271,54.045388818041346
13.647203180728997,62.58780082513623,-29.787388327058068
77.96829378282408,-12.527130369396438,28.61809805355967
-45.023479568791764,-49.656906194644286,-77.32618772272862
-73.9992801507704,8.305830751883732,-12.110454331405501
37.747554003698234,41.28831879399242,119.49809471932635
-116.00396399588352,22.200623761592094,110.1626236167051
-4.29663397347641,68.44719111387072,73.4636840427621
-12.029800411790552,-25.8758882849331,-99.06550852553451
-46.958294586437816,71.18988740188803,-107.44013433184718
-71.6124304425876,-33.23856397785301,-73.90333543027374
-5.727323875959598,-53.013575086126544,-54.890184011685164
84.5384548888384,21.335357637722733,112.34717297037024
8.62627971817827,29.105471688239,-34.41832295061935
68.58422130286066,-12.818520391057216,83.43915135982817
52.19590676602985,83.38998537833307,-88.40267125828274
62.12005728071649,12.685558227024229,141.39044373911926
10.004122251074241,36.273396347505916,119.07894813648781
-2.5706683508814625,-32.29626154853155,42.49037716408952
22.712398283629813,21.204369520311946,-108.65522426846059
79.87060401893346,-44.949567093521296,-56.80849091484268
46.71487593613229,-10.79218232672481,17.819450404018685
4.166781536918628,55.53598954717176,130.2660580718798
-51.69980446218514,-60.76283680293819,-121.39584991072803
10.241420917197647,-22.476614787222125,-228.74774866562677
-31.58295136885246,-40.52794431693893,35.61159768999633
3.0612468368973125,-35.81761126984399,-42.72106190479079
-78.05738087532487,-75.89779995022971,88.17640526314618
-71.95770455872861,-53.28037094597946,-6.312235373431796
40.84699482325692,65.13491242887159,18.108367021590748
45.759195445056385,28.34102162721613,95.19559225791293
54.51727977291204,-39.62185959216632,94.65897292560692
-34.16366727440386,-32.82375102833694,-78.84396042813236
-68.69711170490615,-72.50376289986595,65.42733040295309
44.35084414941454,3.31929308483328,-157.84646079828693
-17.57893510658249,33.206472649896995,-125.1741880385449
-21.573074058580737,-42.72551112195753,-83.9963059596694
-58.856185458952346,106.05695856543403,-3.649319112569315
-28.52173088922073,-13.007724802315701,-132.56350608139653
8.827363793995367,42.74422066926261,28.700093934159426
-35.85020655247752,-49.095701993454284,138.7554768004194
116.4374523127601,-29.868771397311072,-49.91588575182461
-1.5175471236151354,12.056259683780816,-74.66638639465063
32.621757524709544,-98.30075231342389,17.880749148209432
32.076340250589894,17.97340161845988,-26.394504707483303
50.48493464640652,13.601634342795318,89.84082478435896
-60.360297984618605,-43.508518091307764,-10.097096534267493
-56.1923067729684,-5.060288271205284,161.09016442907185
24.073487121594052,-32.21716167361395,-10.529552612732886
23.610517926627615,-85.72157966883502,-0.9547297743236779
5.515749447067512,-54.372576168431095,110.57824021535512
-86.39243499269983,24.564709114789935,-46.92775607144274
-60.16007521882026,-33.13999125597666,79.33755729420682
-106.20322065918566,24.21989066278491,-21.09651547778282
-33.568538234811115,54.14130299819608,-129.26426442060063
53.127451481328194,-32.14966427326542,72.50877694351564
-4.280057066081032,29.444227085475845,-21.102735105134144
22.57777323797895,-9.521237904367823,-5.570676060767773
51.44234907519202,-63.998405032267634,-45.012598180973065
3.7841667635605014,20.843768448532497,-20.63353946939051
16.085975748699035,-4.529880531896575,-43.41681135831018
100.52326899219912,-59.207486538025435,-57.90706679021605
-10.774562490528561,-74.63407871722335,-77.61953562088759
51.444966285234514,-6.417154501012965,-15.974231506991226
-49.827453920125095,18.70719323209832,-10.607690639268094
20.397102261610673,65.59224979151962,121.09020353145891
-15.940144355159996,8.80498023402502,-51.6072290443404
21.50775331309224,-17.922955452791463,39.13584566486851
-48.06768246684688,60.267539432314074,120.83308557991131
61.51363288814119,-41.10271141267914,-101.844654631918
89.81643176527662,-37.84990989406995,41.081968559593406
137.63661527653386,-18.223357431154984,-153.28816841594542
-82.03797645610052,26.949985102933294,142.66688103952453
-1.8662622872694288,-43.59679167970229,22.14713490208524
5.503535288725076,-34.11294153479953,82.99120549418777
29.84628876714206,19.47666701805717,-70.59535188363611
103.37805809343487,4.085577273614645,24.405920785305828
37.37728611032801,-43.98018383262819,91.78342564809891
18.45645485834287,-61.4486652966144,-37.649094377882065
-35.304685440426944,75.09106191791979,-233.7394939278413
56.36755154992401,-6.65627792037655,56.35660656478994
-4.459792107683095,3.845082013845016,48.13920333206502
44.0368540810421,52.012978045495636,43.37601834962281
-15.785020440247152,-19.459263903403066,210.75616795335145
5.472600498138766,-43.09760791838231,-19.012210112661535
-24.026694134219643,3.2912429259014266,7.0182298420862494
101.20758786938609,57.02293974828656,-101.6362616018872
84.99764369077563,-63.60923224070591,69.13358295041849
35.736309710202576,-21.673396054864043,-38.72548373680056
54.72008623010822,-20.23652598789363,-29.160144983211882
-74.33571668612075,27.16028141455378,49.0478063089059
-52.2208785832563,20.55943060821306,-26.17677601593104
37.76482465306514,12.526305873899087,193.17222542835032
-23.802391284156034,-24.01964575119118,-72.9574279777544
-46.90392848648216,-70.76240775800811,-68.75718586044033
-4.78666812152317,87.37053685631338,34.93525933698471
27.07120039387429,13.142975338363064,-31.303795000636732
-46.59346111168367,11.478348902470913,206.14791606833282
45.99097365463559,61.542859757820665,-137.69773850041975
-15.055955947506424,22.76534009308474,29.63307377660189
85.4824003176026,34.5592901433073,97.45884194550545
14.406300225721491,-65.68104430114154,48.83461264526616
54.02963010398868,-67.02587719931034,-13.255421682896793
-1.5491794854689789,-35.20658199671851,-35.2827049839192
52.280127395433965,-50.71691859923403,31.13986174720956
-47.508640460107394,-59.02618983231083,105.88933979256628
-46.6387416331081,22.176232334935236,87.11663636129315
130.38025592447278,-105.28548520550297,-171.2678736862317
-26.35440621711343,40.03069826589385,-27.023602143821318
-65.80324874552976,-69.63077677355498,152.91374414416154
-71.9156653004775,-77.20881983976872,-6.023491664836042
-38.67863155429622,0.9787916969579882,-152.73665720789472
-41.841126586584906,-9.445931072393044,229.1162792470118
86.62486480323611,-42.63275177231247,-6.66189508689596
15.159151584115179,-72.94084236438725,-26.617366804730068
-11.05980836157872,-80.51065309807535,35.657790481521346
-38.05027391610765,18.162581498528596,-48.060599801165836
-72.97532270472489,57.29174842510746,30.200938709167392
32.037852338257586,36.794936931769904,56.79828616740672
-65.19708670026068,14.743586543524234,69.67854108687767
-68.50604636439176,-12.272005105319499,-4.1206717904155035
43.16369403819877,18.448799806019288,-54.32891342989907
-138.32796604787382,-37.34144419930905,-31.323196388484092
-43.476878852170806,-32.67522819764022,-50.945171492889884
-22.01950287136286,-44.136908840723024,118.44027263888054
0.43743187428765073,64.40864401541435,6.613268868076864
-100.8553305165714,6.002251146667366,-72.96567607722812
