16.849594273346298,7.723027134549386,9.529132529341483
-14.62954891097869,19.010016258312742,-154.76970869618955
-75.58932798206484,17.267907821191635,1.6634710701805264
105.45998651417192,70.26049525302871,-7.672635274957278
12.009753169442478,20.17527613148041,36.62585233331805
-38.55126255335619,-22.871832188395814,-51.90818599379415
-58.886824337655185,-26.895920636915584,-40.82008404203841
51.303368492505484,16.4122333649612,113.42858196438429
16.69684515256571,70.89846345510635,28.35410503405488
9.317374731949322,-37.21749271212735,129.38479900664439
32.570342702278495,15.601821792333867,97.08067127626437
-7.758881864195518,55.18512527569857,-48.25755016422745
-22.26836719330931,-41.34469436477895,-32.576803448156056
-18.64207865560214,-135.12929973090755,-50.75572354306335
-17.557556361185387,-106.73409598177723,4.161833303265851
21.16178888762882,-51.446124027509086,17.095785651320817
16.63130298096882,19.906426060919944,-15.297246941201422
-24.68992903315344,26.43194207312635,229.79334722385914
-0.01736974374695015,-64.07888286620414,-19.312692883756235
184.8827464168772,-74.21662436212611,0.41382398199153897
-3.1024688784617727,32.03265236726296,11.928491295748751
-7.194855429892392,-5.659555214353689,-215.4187726223283
51.775714103290426,44.20649131895535,52.25826263657525
-59.20020180903296,-38.27764908341793,2.1795387724311874
-27.954863408000787,-4.503817544317928,17.37559208018216
-49.94142366701351,101.76053647852254,-108.8916580914648
-26.831494233123397,-36.279492526216984,-119.62040142820179
25.294200426456776,48.77713647504677,65.2658328728283
60.11946035072613,27.17970360855289,-90.13913004937784
60.58699079637327,24.900647770188673,-42.72450579005016
52.15868016667778,-87.11814901483741,-37.477567865599106
-42.172738209241516,-40.273361014495165,78.84010152040129
-43.9399180623,23.97537149072778,26.21222266134201
23.686841441681793,-34.04864845632583,-94.5002847912353
-33.068364598952726,103.50230929416779,8.746094492355967
8.262019345156268,-71.30462506980689,106.08655989710738
15.733572350798605,7.14314585594604,139.21412076343387
63.91139971732747,43.193202743696816,-194.60004324651607
-19.493618988207757,17.458683519164886,-74.88990446607207
55.49545775071299,20.52757418184567,-173.86525909623603
45.07391581879176,25.16016580930148,53.505833221668745
54.360928932013366,-7.955103041687008,-86.84245770431288
-14.948600393357992,-26.7263736965613,49.36767974663585
-23.726989688250885,-39.26198781890139,28.68652473365487
-43.19606233019096,-12.590810338635357,57.72563022065974
44.47120340615772,-43.839759914146164,-33.765365185901246
-8.20596053791837,21.766771319781302,8.665876365575233
-65.6189670631408,-49.27731813433452,18.29542225556643
-0.7207388758169395,40.05652225753912,88.91567747943958
-32.60190002278747,-8.498197217053223,-20.83123563036739
-16.974299182296026,-48.2685711734375,6.01312088434311
-81.52586585707573,-43.94311052098367,-67.08122403150736
-0.9346124815588495,97.5761654372459,46.98770878626175
-18.516060765568568,61.06725972578069,215.67816565727327
25.79970073677562,96.14672419834591,66.75881093483754
48.960495807830185,64.4476937737207,23.430048583469404
-2.5514103488100535,4.317450763150296,-10.425631693110173
-64.62141770476678,92.30298458677613,-97.62087721348966
19.562482903177028,-41.391275248209666,-8.813664202563487
-80.76867265715408,-45.780563025164135,55.86383001699817
-6.6315838304463055,-81.93554777179214,-62.387831975503275
-41.263726475931655,34.867938806800005,-20.018018792371876
-15.945220888467565,18.67562635925846,-183.0869150778651
58.76655788051605,-10.917440772911391,101.07877192503881
-33.20179667143464,6.4500766474666005,100.79555113437361
18.246264728429086,-28.464539412746515,79.37500571136708
12.529830194788058,3.102629352898138,-73.84021484340772
-27.12242799068274,-5.503465614435667,145.9801824249472
58.975942503766866,-67.0366123407711,-62.28312856510393
-89.23167105482386,22.646528350155847,-49.87303228105801
-17.62286330690162,1.774438693393593,-88.96108524894984
-4.251316165319157,63.521920176707816,-18.817053432845007
-30.22267117741537,24.12466294869853,153.98805074208065
-11.21442514367989,72.85726901308111,-153.46573738387204
88.42905584161082,9.572835522229079,93.95105277521148
18.66961533329899,66.57396821900468,-87.98026351645699
2.108139181170961,30.60186820771076,-22.792497182179037
24.726922461092506,12.484074482375638,133.20120059715694
-25.347157113154367,-80.39261189883919,-30.176801611516527
-14.848803715480408,40.16444981372996,16.2448708405424
-66.0680167098958,9.200631289709312,-139.95567706246607
-24.176785446754707,-105.40435769519367,5.346417174099822
-31.144928787584075,-137.4860935414742,-50.8523259679823
64.26633561285969,7.199638589678516,-48.89058170218746
50.54258412890126,17.700398287212302,-104.50787108941817
-15.906699616082577,-57.79177237119369,73.1835428627868
96.49309165692051,44.94056434971124,-213.8531111907817
-67.65612167017412,18.567348280906547,-65.07025241657067
41.679264226775544,-62.43319926916061,-59.16833510680058
-6.189123527178959,-18.488608926277177,160.5587142150687
-15.758474754424887,-70.057722058573,-159.1562762421485
-67.76529740788243,-71.91736508928196,32.58650469728161
57.72160210109886,-32.57069301532344,49.558023078415786
13.47385963236712,-45.49933828640291,142.11689129766074
-24.84178931851074,-21.594421978784823,-10.519218239156107
-11.17851934544141,60.64344329259108,35.03981882211631
-60.46407050599436,-125.42764653266907,38.49540794709503
8.769911069416079,-58.897888766987826,53.345937389873015
-103.86704186042802,7.897434070603928,164.93363477951263
46.99933330623756,66.89124273286015,16.68759528742282
-45.60874302655359,76.40991265290057,-3.4179937202438597
39.4731342543227,-3.8923802302140342,-105.87801724400893
-2.2361207312621296,18.62236011908335,61.911500514687525
48.38755802162632,-3.747339608249778,157.58999596797037
-48.35863388643307,-2.1568090045096957,-40.40743777405484
28.517816034953114,-15.726414395996303,-73.62686596852132
11.986870837143893,47.65706077134595,132.40281256666015
49.68927695626038,-54.70496813354336,128.09028033613905
85.86835081319379,76.8202318597504,145.87164524772516
4.798267971309579,13.539996846521793,140.5085949533329
-39.860402504751285,-35.51794182082306,128.8521467173798
-8.496762736115162,12.15138398519505,-35.06036914631796
-12.616083608959963,41.32764094426262,-45.97115419122794
-31.76023939595106,-62.34974565532201,-118.38045982116199
-113.6589421875731,10.474949518456523,9.72858317771747
23.20822831728202,-48.11946456200112,63.10923988777591
-48.30106024789013,-28.622758350249878,151.77735562905028
31.172572276051326,-41.46556623196145,-100.94120325184629
-19.28638902081615,-55.12288623821018,63.3813713184572
-35.065007422244655,-32.07492831332185,5.5557190477268685
27.575910063343084,-7.932140687386717,-15.40827086227933
-22.29151062738914,-102.54317486507925,-51.77477575105157
7.286229906025894,2.5558401806319897,241.4303761175196
12.200474384728526,-52.45861152958001,122.06503446938714
83.19626357839093,25.176897552811354,20.122848806642878
-79.78767152016509,67.04680605297756,-89.75285265465473
54.8143706212066,44.89166630298483,82.24568417822685
-64.68935980670729,-20.80497591930199,80.52976472676357
-24.178740714134456,-2.05508816823775,66.98182059176352
57.832920458473005,17.06843724855045,11.783028007460024
-58.25780439188934,81.60280025594612,18.956858967617645
-49.04091246557813,8.950073518531756,64.7916370982456
-12.686046256219244,56.44760030402115,87.28217768500207
5.710104960719391,20.3913400916439,88.10708438974231
21.15776149145194,-38.01285621853279,-75.17817421281791
39.51228715508436,60.86188525009678,109.70763678412462
-38.564288313251154,-42.07890534687603,-115.8957736213998
-21.832744918578854,-100.96240274486614,89.71211599389163
23.343831331757244,23.06445537418114,-21.9573407098764
-28.660752774451563,23.721007556118906,26.850987645031903
29.895666798975824,-5.194232232931431,2.601997190367058
-64.76654600791913,5.277476677003916,-19.530744209267073
-131.72322889969942,-17.560095548220648,-11.220238167145455
-24.07628437016578,0.7864833687607327,-14.811350229986672
62.78882127837932,29.48035401279804,77.55829540285764
-64.23553745285119,71.29029540594443,74.09937043831016
66.2636701042112,49.20947324089241,-41.478329523708815
21.034310848072867,14.640819229216822,87.22878789303337
-8.212905579081113,-80.7431432646331,-149.8003437571852
-3.6844594236250945,47.43922581763613,57.95583927072509
-94.91689156603836,20.714232320894467,-170.642306734843
-93.53526170921678,27.64460182630778,244.2385337073255
-4.121171060074218,63.79753791410002,-33.628711106612265
6.016750309632176,76.83376467452848,-115.63447780692532
61.80131300073383,-46.031100966259174,69.33342334580787
88.83734154177915,-23.976939889434224,46.77003826429804
-33.19091831688423,32.371394472657364,6.494290081443249
-71.87593704172137,-91.55710962607075,92.26257106615901
80.94122817339186,79.79156850811988,65.47132636074599
-52.2559522565099,29.568708977763826,-112.20374182209969
143.96969171014945,-52.95002058041136,46.66006751758739
-41.10119680905299,-63.81865487292851,34.52770809619112
-1.6229163830297457,18.717802900457443,106.98691745215905
-90.31742680092013,78.64329508215326,118.74895180665408
-43.657667383981796,161.995278516303,89.46896482054328
-24.342701328861157,0.09708313474903467,49.003838264590726
-6.228536214967518,23.46628718201536,121.55337687580563
-45.02971007494387,119.30840843210385,84.35454403150888
6.205100338108148,-21.263930872766622,32.65985912649248
40.024457097476244,23.928318287574978,-130.19237932232647
-11.601124048903335,-97.22817883144155,43.45565457738434
-43.40033218806306,-30.375511458257076,-33.43721491868723
23.710657582781007,52.72899446590236,121.11443531110042
47.98306254889843,41.17178630890476,73.73823018355847
-23.236072657652876,-73.29926570015351,11.295863884401664
2.820830259106708,-40.069456839817825,20.98488101223978
3.847599900936025,22.05957133325987,-33.315226416304526
7.159436511117691,-28.53892542613925,-56.96504771265617
19.086492878916726,66.17882063945815,-115.2034036951817
74.73314118892836,-106.073584389815,113.62697763189851
15.604123351061517,62.88046070454853,28.443508312826317
-9.931050380608816,32.6127660259792,-56.298829991217346
74.37167574470398,-57.44262147734015,13.063270996261798
106.15552394774319,23.262112569630773,58.09951520218107
-3.9551364135944462,51.67013616115182,101.93996827179325
12.621032513653152,80.97664282438177,-34.21435972181091
-32.99778988600093,-7.889226622602713,-12.66014818989499
-28.28001578533921,26.80462313460773,76.29189550572515
-47.72031134755078,59.5503234925419,-138.3443904311955
-44.652486371628605,33.49539547237252,216.251816933177
21.71855458489974,-28.168943431050568,-7.098692346314856
18.44675256841119,-47.72423451151524,43.20216122734735
4.983842510976607,-54.76112913569562,-30.60273134708147
32.70282609718735,-24.92541411940621,46.22538795921427
-6.654357552774116,-107.43161458894521,-9.866509559040724
-91.84940675529967,24.513833271220246,-152.95663450192734
42.64121032481923,-38.08949495357442,-80.38480628392144
0.5672025337293503,36.76388926299134,129.2089519309903
96.48283777837476,-30.461882682073593,-73.84115319171677
74.99214775480728,58.202082844551484,-11.856192581530298
4.027913184505781,-7.082946551381005,23.66031374865481
41.98166192053663,-7.341578398903372,-66.78048644620311
-35.21105750213709,12.731177839120717,-75.20415642290514
-81.60689124673652,5.757836999946344,-52.90012660228642
-39.80259660646395,30.87934406292262,-44.76386676288449
-21.951201936048562,29.53417289541974,-66.1007660740211
108.27930124734438,22.176584124112626,106.21877231016445
44.11117331081415,34.22876930030225,187.24031812865516
54.63307721762853,0.5426484544806429,-9.57296705763192
-33.2034791764322,112.10786083676898,-55.55641307393145
50.388177102010886,43.946061874169544,106.05865341821377
-8.152728501028575,-48.04579942971996,18.858885886898136
65.94759572172492,34.891842455875185,-75.35829489414942
33.07938572156855,11.773943788490202,92.74803162082576
-41.79464509667391,-62.33328490685675,74.85827598451152
-7.881461976490073,56.806080887673204,85.27117014182015
18.279714440625774,-49.028666918490295,-9.339447890125705
56.2861492895458,-33.34834708545552,154.65967463631188
-36.62828925583758,-15.363848357562105,-22.90014423540601
6.828644950211503,51.91018082898302,-130.2523631178403
27.638007393304747,20.742560335896883,28.106091123255506
13.446696932962313,-42.84188149106318,44.9326074201759
-46.02891731997591,48.70344172773818,32.14182407503803
-64.75432625450156,15.654989646975292,112.28804987374087
11.072136682488601,10.034973081089449,-80.08315822804416
29.185377238301534,126.72060044404883,42.18738687853817
73.02111684587793,6.283720376645537,-3.8796550585925083
34.40707840732331,-87.77708584855813,226.00791208541935
-68.5855520083555,-50.93484862529208,29.82123634315654
-9.191088632478255,42.167733083562815,-152.00983510728815
72.62228660280606,-2.05215840144319,-45.864008646459176
21.714819864047914,56.14347552053241,-16.068907461483604
52.97725304639658,31.04212799076012,-73.61310245020412
-1.3255824633907303,-50.61632691322367,144.19431890310946
-122.09715669501948,-0.7201688120747585,35.65121202631684
29.764518465563437,-15.103562174362425,-7.732612687131317
0.7803239516653164,12.50195451819244,39.326941746175386
10.797521155264764,-5.107806919739003,34.163671976937145
-44.364918902594184,23.36345199902051,-22.83992360892438
22.746212187627318,40.22174183775271,8.571291773836533
-32.97102505673778,-30.480250565808873,-23.25446359308825
47.415115144587766,-53.653556318087794,-191.05810248392982
7.874089343827313,-17.153598384368664,24.637432615385876
-2.0387113251424296,106.95625449533368,-66.26883216283053
39.621493777233106,12.091676464411018,53.95084328903698
21.396039903363935,50.705712553709894,38.74247110391005
20.73558110075901,70.09180906671538,107.50018470250875
5.802297952262036,-26.666665933354576,-32.97148709211947
96.88822369775959,12.273915481848745,-86.61341589403075
3.1094361873862444,36.06215546362075,33.07983800546009
-78.73177748029016,-28.781101447346618,-109.61643610093701
-32.90388230278232,42.18294733942264,-192.1472368806409
-26.713324994035652,-81.43384487462696,-90.99281814022955
45.78579606841313,20.064303889711844,153.67409202699838
16.693226577341505,28.427162475111235,42.99676080513862
-44.63528999616612,-129.00223104317809,-22.791956901334505
4.232844366021939,32.75312746388202,-102.08730661987114
-36.99341628334701,31.27600484982423,74.6688506420006
-33.19183929828595,-4.173798982817913,-51.3391439318747
-3.973099419168782,22.669416059642554,-43.44551580247625
90.19040996383274,84.88271815984294,74.80667654489828
-42.858794694758394,14.509897105500514,-64.32900916771378
38.93551394330644,-44.381391695437124,-320.05640246151364
-10.195765628211134,24.449587346301833,-74.3664813655743
19.533392444521315,1.612909350827479,8.212905393675307
-42.24013283137742,-15.531585363772892,-134.50873638586134
8.51230083168852,90.59865493656567,98.39893354871533
-52.15559529041814,39.03086625287505,36.27176073778992
56.177373120893236,-25.701573066543638,11.176310721740059
29.649322751093827,20.083523428062545,-34.114405899587425
23.322469453110955,-86.73279947377634,98.22313027969915
-74.53275391774491,71.27102073904355,83.90459870017054
20.39937205720609,27.461069972449742,97.84093998354976
-75.84580176415369,-26.750430544281635,22.437996402013518
-63.24460110689356,136.77820757825657,20.947891619722483
-59.64475412263537,80.7516821593291,-121.61609235321615
-24.83790363192136,4.284110782713746,48.22841346452425
1.78876406067206,-48.77725793266286,5.817305208156462
25.063856238601602,35.867242131550206,4.695092919440602
-42.60466439118035,-17.947275078798345,-37.42397383212105
23.256798824175924,-5.968971521152404,0.6227573602661852
33.37132438704872,-48.0581657683587,142.79523774856884
51.53529271237222,48.91108502456186,4.297645097708891
53.47808762434121,1.0189480816262493,53.7650247035275
-38.15538040287527,51.277833662914574,-168.93350294196372
-78.40411681646312,24.455521267690976,-26.52773448382204
-19.111383899928576,2.626088504159828,59.082592626774
48.29878749228426,53.44834209183905,92.47507905543397
-3.44813856668496,100.82235122370263,44.38898842371757
0.18123050735510557,18.46945466920854,80.03165408363833
-91.99472330718457,-144.43165837145847,96.67903616657806
27.464923507651644,0.15261856983199407,56.19410177978985
22.125504074358616,-17.055038761782924,-59.55117287734233
-12.935194978859688,82.1983360439231,35.06110985515507
-25.529566679294604,-31.759975333264723,-11.54974948209118
21.486776983639196,-88.83077151077941,57.52113089678478
-67.20395111030508,-86.45297719597157,-52.29144348822779
44.79992909575095,-65.28508915856217,62.08614266864744
-56.50195827591784,-77.16803292458674,-184.8790094288871
1.2581430616486524,-27.838050103425182,-38.01592475040383
74.75262066739248,53.51488421368346,-40.89737621254924
-29.687666181541317,-53.55810736889289,-14.139868355858857
65.90906623512626,14.531445007021485,-10.014017378116558
92.11081549837576,-52.00968080146047,10.738355972869215
-84.48104429869657,-17.123838932644926,158.6948865413904
-16.037630653074153,27.34023151776011,12.763672929160881
-33.50888825799776,-2.4535993563683154,27.139675899413984
-9.427413560915571,-32.26315474211712,81.39563631127358
41.56527717380168,-42.48894681320686,-52.8042847472821
103.43305955608724,16.078795430268258,52.266724432399386
43.63451827025147,-75.26374484868313,41.776648927529834
94.39277817026239,-8.098910531894777,-25.9657232271422
-44.808162582861975,-1.9039405487088668,-44.15882353646005
30.13545184122798,-10.097085326722786,-14.863459914442085
44.242450213601245,-12.4479745177969,54.157780823751125
50.88520040721032,102.12676812371046,-30.11216106819965
-4.113737549866532,-45.75617543194607,182.87857560864566
-18.897193531190688,-57.418431818532525,-103.8786523282485
70.35823212543882,21.7233302722276,-1.9889296993977372
-49.637883797415235,16.14189962182378,169.34543209706462
3.1929820556101003,64.06864428033802,-21.376241584085623
10.379418481264588,-4.487937657581262,54.76892507145984
50.180109609224175,104.44171718621105,-46.48287422215227
-26.717913737980147,-86.47338499057753,13.894563971744178
-106.47904269753579,9.81927746211068,-175.59814978606775
-58.75381728225504,8.824383596174998,147.88351179796177
-38.59786139160531,46.84505245062315,-76.03077567796021
-69.6526276249308,8.551370534693117,112.80619266316396
18.976018576787624,-73.29874636539418,66.02310414100292
63.969355966921825,82.18326829058739,22.14790388294172
32.50803011623751,-114.22617530153755,99.74804884363833
-48.44587171227786,64.60883653917878,-111.94121973305913
-55.81980974348474,-76.44589118318702,-107.63621256161277
69.78995541025363,-36.04375228680271,-60.16080277039809
20.395067213636416,30.594807084795672,35.17394097934918
-50.9897162206685,-27.134644252804208,36.013132795857956
67.52841093966155,-91.75298276288116,-40.80117146603674
2.550342457873649,30.096947689975227,-177.91625441330234
-30.073693875552816,45.364786297079,-38.758213054778835
28.25873755048636,-19.535449365846677,-81.35895607833227
57.21489845372562,29.718357040759958,92.3833813153327
83.40163758527459,32.375388954440695,49.5094068763708
28.750916617803075,-15.876826788467252,-25.311076560101817
36.51906788553471,88.13967900590421,-95.83085737188296
31.90829231820034,-41.91441239034685,-53.024214256197155
58.94248668185057,13.073666121350858,-91.71264078538054
-70.2831108156499,-38.99578004368131,47.218321055633155
-43.01131183662324,-16.27550407695105,-103.73601666344764
-76.84447672205576,-59.72643721854056,37.78210941220284
-28.217686001397446,-49.03889497128002,156.27070965168525
-68.3519951590542,-4.702136237927195,-45.76063940083309
-92.84934658408356,47.15947419379239,-73.39491741540327
45.33456248505152,-63.4854777975407,-54.53178134763242
11.779282223809433,-60.82375713518967,-67.44656174234008
26.61608997422636,48.186185642493115,1.1922033649811234
-70.42291328347187,-71.41170121417952,57.011822795636846
62.958835788139375,-29.753730831573062,-5.824908720972775
-29.099800042876645,-17.4888319590352,-24.71909338925084
-53.08398779383939,42.69028288732043,-45.79925104721184
89.3397464883584,-79.73627483011033,99.26742656407339
13.584053857730588,89.54246321709036,-57.86313767549179
79.15682996837072,21.912277399893412,-119.19923520351225
28.635196061745294,-17.850717319470814,18.187865675785186
108.34102375050168,32.0432144925764,-127.43367267670544
-14.52324362236411,-56.9931444782109,-128.28989916388727
49.521931257768074,-74.39075486817767,54.701975509688204
21.183050247424188,-8.971080144532955,-61.8914033830616
9.389827847845478,13.766080718959389,-70.45332976710402
-13.087476982202768,65.3727618770741,14.694906831334844
-31.908425500409976,17.42983985943966,60.07449294681409
-28.376196934606796,-29.200462645357923,-237.32430190690962
49.535662777216146,-107.15045600601304,-52.057882125645385
14.18940406793095,-15.672259376826975,4.194978639171359
35.68587390729361,-3.6773463611006294,102.95151545155906
84.0249131841933,-32.9727278406055,120.84824151704969
-57.44875806276707,14.25993939301906,60.65150463292749
-58.93488153196736,67.06534683488799,48.39579731226558
29.24602033205303,9.818049283100864,17.69858965166961
-9.764364053191338,47.88898617931237,-100.00257980605335
14.78372288243548,54.45146326375981,49.43245761121425
-84.44587809969126,-30.17121778092118,-20.938968881714203
-31.880810910957518,-76.95982609636712,-8.088881322570526
-3.2156207558059777,-30.12286049986357,175.01785308962684
9.345490932397347,-56.39891446854135,-50.16512157415111
-67.80172237973537,84.69818573107636,61.65917332580685
47.93454894565457,-90.48095848478981,-182.69732791969867
-52.68436511652877,41.37234932477498,106.34086214866042
33.26483604141849,-23.465085758233702,-158.14192198017406
40.52811012254098,-5.410319235633675,81.83332865259462
-6.080603741743759,0.712486451437191,-56.2335306883711
-22.657340516726386,27.595896713749674,-62.7704229065148
-105.4169963892234,7.460086631438566,136.40455697517186
75.48037516444029,32.724140914176246,-67.61531425968525
-17.57633787194368,30.55769660987301,-186.59496716897618
-69.22040629738648,2.704233696989209,-18.682158354068942
78.57082932594854,-1.954168364494829,-54.68508779263975
6.5762417918746765,-42.604930232662866,-169.9593903470326
1.7886925571414338,-46.69066295753666,34.42595516319011
10.261304801652466,7.388928943737947,66.40139523770156
-80.29801385033078,121.93325279680201,76.52013928110043
-15.436010107214932,36.10718377014106,45.889563080377826
69.4664593080449,-53.31358382951321,-50.70329660874633
16.706248231530836,-34.49721618406806,134.65501561563312
-1.4895390208745407,-32.37957306535827,20.17636468629428
28.420642717090423,32.42260115328063,49.591338478504056
39.811680673484126,81.01379765148128,5.491258575407628
41.20558269127633,61.33436158209393,-60.04768449134267
-67.34820694742456,24.725454024709265,61.09746893948534
50.48346021592511,55.93557626910148,71.12659388827527
-42.82200259973187,32.903738307264064,-62.01771803056458
-2.7332467622157868,-100.08782132658519,-101.26138352440579
19.16771843012643,-31.508326363810312,95.73073248800682
48.82640242985113,-3.0793473493062136,25.592931592476322
-23.616220918083293,21.543524096127857,-82.73427257138644
-81.19354901680413,36.99353903696879,-143.64928439104045
-13.662771632586695,7.325952119741351,-52.66672322477822
-78.91312519728415,67.304309106496,-108.60258979337387
-14.22779789876199,-78.71688250404478,-47.463048278187955
40.89849516641089,-26.716827386670687,-0.6435545095010886
-88.0137461362286,40.98833009682769,-280.34830333890494
9.47830260766473,-53.917565294709554,175.1636289249267
-66.02241973839105,74.30289561602646,20.81541751268514
-37.310902886349936,91.43596680240356,36.733841661647915
-15.498260718562706,-99.63461104979014,-174.96470272481145
65.7213796109678,-23.911908464049272,-122.91269340732418
-15.94970328692341,46.01633331161366,58.75267152963929
-67.73088736108141,14.364021898178555,-22.872586672853952
-75.92754479523781,33.95303611269408,-155.89704589698678
-58.41242906856058,-9.345591498191398,-96.74957475769901
-20.640536021093393,15.72926065392784,58.63490558303765
37.061578217132805,-28.09305305245261,88.12835399615253
-45.149475401986436,17.3384277309763,33.74663255545799
73.87348033435643,-21.736160985782117,74.6913407797831
97.59485573035705,50.428071662671,161.88049781456536
-77.59579472617932,-27.88713954344922,-105.85906169226428
-20.902027826247913,43.7075592586048,107.77697043244257
33.88335103381125,9.464435949123262,39.3307747693656
-0.0910210801942149,-55.635507853516394,-10.378125356721402
15.778228310050208,-17.860708148079603,199.44171522085685
69.4535880418789,-10.431479175595983,-57.36200958950903
-135.51775699744422,67.01293063097144,166.79140183648178
-109.19698557928335,105.85272496347311,-121.51113216230318
-80.78010197405469,-51.48157386015212,222.50392682820578
-59.2121648554961,24.90058892213107,36.23243403282609
42.09104816064499,32.71029381932074,29.743372398388594
51.395143618459194,-69.69375619961168,-41.47527720894797
86.55614890360654,10.31289571856222,-22.302156180470234
16.0491936932789,-34.53604229155434,-9.690124142654492
-46.382714596487865,17.328571744630153,80.02402596439862
-3.7162988360955653,-68.91612810821925,-7.019598007171549
16.712855655977695,28.04899051826741,15.35281542521076
92.96136795349665,32.83246810684504,-70.16855736254699
-11.584032175669561,60.209733810242916,13.40342968497226
-2.59981429498768,-35.33217715731776,139.61853483833295
-3.9001800170884975,97.09633629269835,60.5366596760688
-27.059347318438302,67.72050574653422,10.325958832453296
-15.10510340188676,125.55628854294922,19.336690467431104
77.68761771376495,-111.28155602057632,-136.39376069162267
-95.59284077988067,7.388638662076325,10.53208885949952
-38.88388489280227,50.21503546138643,4.2592101698168685
96.25250878069194,56.076609860818024,16.7304876019854
-8.203224534541933,8.425725055024055,132.88019529467084
66.8191929924022,0.9600166881981895,-31.58375201854288
-53.12440890134601,63.62898062424218,69.2812809722926
-54.96600887451829,-31.40578825313683,-98.65143296007149
123.84445301823246,-70.1475699662672,-66.01390394952757
-88.56010993888907,-22.52751805182958,-19.296591737456907
-12.181048718852521,3.1371782560493764,3.8431283371762044
-115.21855756626391,-13.26304554624028,-46.661890716345
-39.819673874402795,-44.550072681201804,88.26894889267228
18.465884423494185,66.38894754120983,-87.12408311524766
24.106249171364368,76.21698112594414,63.24857441492907
135.11763039761226,-64.63627402650663,201.29418276556856
10.693751217812833,-11.751428347082788,-90.39337469440082
-32.61798509894648,-46.927403873102655,63.87628476049388
52.44973899189438,-68.60362496399858,95.65573776386248
-73.01263654753917,13.210386496051596,-23.584032489108846
-58.06040183674909,-15.221160073007175,-65.236808434211
-2.3963198531943783,33.336868714153525,103.88836912509207
58.18235849720078,-50.26275739552003,125.74238225714193
-8.882378466657988,58.11870370956815,-10.605169681843575
29.662570628863723,-1.3127784558803657,208.3950976376716
-61.44236950631321,-131.8292037342252,-142.52620228134901
60.17481935701826,-6.146115293392822,49.450283829304944
25.617850180814578,73.61611545119713,38.98015888585071
-31.556191611724504,-15.968930441780413,161.2937469606026
37.0669598904569,-37.920340130929084,19.286542585779923
17.509046775140874,0.252062690273045,90.09434800529536
-13.641606849566411,-34.557770331066386,-76.70772366450143
95.399594724414,6.926623220618769,60.09052398277248
47.04649738907736,59.19855577039572,-84.58221147040015
-64.03667646028983,21.88435122777533,86.99398607521336
-22.385853602761134,55.09847950957233,-86.76097666761822
-54.66241776874643,9.76907912577706,227.80718478064836
-49.31873940948407,65.76500990498695,52.327526781641694
-65.26476995613574,-126.44007937526851,-10.074629207764863
-10.457932685073319,12.588463497541177,-33.14704472407409
3.0973289688783128,-2.133242819116804,-69.39577800272225
-38.02313539949572,-51.39038012709288,153.47614606107203
65.34830221074596,-41.3285782946394,-14.4698180427212
-21.742965582604825,56.002130763615135,159.82818603600464
29.967160604623565,24.765236736508754,47.380848897403496
-22.946032202822284,-59.72154363823338,-11.934221549602938
-77.55033232422582,-99.59798473842301,-33.61744329462251
22.250211588526174,-29.309406310359105,16.243160649732182
80.14935717801997,19.616656601833654,90.25264106666079
23.602025982324136,-17.826802819542962,31.990762875401604
21.938570617463636,17.89797110408419,131.86853833594822
-164.34607833708625,32.113247767453515,-85.69399451563284
125.56412579116095,-22.878150049385233,-147.8775470529266
74.3883048216384,73.6871124133302,-104.90098245807485
-27.489764171089277,-22.90878331106221,64.31707758280444
7.499914505299768,59.02523147624059,-157.96442420987754
-24.90648526086891,-30.067286530374886,-17.03937661784458
87.28389746317069,-10.41267236467229,-64.68152862489545
-20.480946061741754,-104.42825919252337,2.7241271620744976
-80.38526739539988,44.94051718812591,69.9179061520075
2.4368999317549664,-75.74593309405479,77.82988379416382
34.469939428385935,22.623569312500948,-48.00517346362126
-22.771137220121666,17.94589446354394,-209.32456049251266
15.258772947661054,24.985826373202727,20.381913328610807
17.818772869906468,60.94900151275222,29.079149127778894
-62.047486180410296,-18.837115541255066,1.1382961212427047
72.47440679861047,53.596386059541125,-36.3864850654431
21.050435712747063,7.058497287247402,76.51411221070376
31.2447237039869,23.842200197848783,-103.3398515472006
26.64368793244328,4.802386595586331,42.576983585409565
-50.25952317447096,87.06260844912357,-1.2709598895587495
65.03290764746292,54.848143235022484,125.58395702178554
124.13491786744567,-61.80667622244205,90.57657519108344
-27.346964359647608,-23.74017615098117,48.75744390607064
-16.270736044201268,27.233981508607734,-111.23483350667198
-13.824607662168075,92.78791400284207,24.88907457918428
-116.65320265918231,-67.8581939648932,87.95669055204006
-13.253128719802481,-84.54295211790378,14.146350027612128
-71.08483039300916,13.074194940280428,-46.96143689442462
-15.048639766642602,-10.490798075813021,2.599144992523556
5.946971791063031,-53.9869545935086,-141.77576320833242
-39.559863580755106,-93.54857764003695,-29.388016814628614
52.06554937248029,8.561862504321118,4.359370377556661
56.24895446165256,-35.8891634662159,0.04513629608645329
-40.84516052418834,-69.41741520488853,35.72358019320371
-81.95311647802127,-9.057665931203722,79.1785429907944
-93.5724488387383,1.5071777740555923,30.23095872126711
20.31498264846669,-46.21656010836778,32.710352429907154
0.7387751977045875,-53.31895109942163,-30.99747968948356
-123.24162015121925,-12.798322464342181,-242.6992480043531
-20.41142419707255,18.334227887817317,-96.94364022293063
29.699072342024063,-61.76076704363811,-3.12907294487547
73.5206093641759,-46.96448834376361,-18.68932918504252
-40.116071720815185,-44.62495263521423,-108.75910465002893
97.56914599796062,28.321946213350536,56.64130168773735
7.206681967117154,-71.79219819402223,33.53262277852648
-6.798840720222174,63.87811220309697,-86.29382502026456
-37.48317064743938,-68.97610228104159,28.978586287996386
14.49280674938599,19.090660162310012,3.8066278895686954
96.23618249793502,16.651015435930407,107.43196584545863
139.3035772876546,-14.613024008349942,25.087023126066914
-13.050119465872514,5.15238232861685,-14.941823296869293
42.45602241366545,16.876210562953027,-84.62204489129095
52.31068675334482,-97.07183713390882,-78.09014687375436
75.9859020070487,-3.078039410611294,-69.81195329101845
56.04917469048413,0.6035984595419273,26.226828764427555
-28.08444187335825,31.896825838422593,206.46604316557077
-59.75366192785418,-8.996749054107843,-85.97462834328564
-83.28383046985405,50.60917117598941,36.41111324160748
-54.73604501894981,-28.08611060353263,-2.9951354868452014
-83.83782590866488,-53.84517754671771,67.0560753925163
15.574271429293107,-19.214210115299522,118.67958958148058
-69.74211729217738,19.116615662765348,156.52890125409377
14.705431162073207,49.49084817405352,-87.41686139037843
-6.994333224161531,1.6850536739651856,27.997686377486794
-87.1826896685921,-67.80410485298485,-16.737671263270855
7.66521964391932,17.687763991655515,92.85357710551078
35.609147085993264,-30.88702226789648,-66.3786699558987
-12.422648604377452,-1.8429403253094885,-136.2104801905295
14.934191373357534,-65.93972590487999,-12.040392026429329
16.75863926711017,-49.004076824333666,-122.56520347101858
58.405835271912835,-66.4273321153819,67.36327880573322
-43.69542467164226,23.37406175133542,-1.4036937719052596
-122.45714261885252,-20.750484637257202,-58.64547428323339
19.346603139078173,-9.790640798997888,-193.05819092075558
-58.3281938684716,-87.93829477544483,-61.24695094876177
-11.651811872379454,49.8862127932723,81.76490574221403
71.40565563375498,98.74214743881498,27.51505180172039
68.87585059561594,86.3535020374623,107.23858575136444
-33.69820263151582,42.215488622172764,16.335421784652322
-82.72596219433545,21.615199091236853,35.47975906217461
8.816593053385073,68.62564506325543,25.441893196086905
16.88735659439849,6.99549011795324,-62.25645173065269
-13.878081751057753,-47.465332470356294,-111.93113536283721
-13.866003481178668,-64.58413830942357,97.61950220617868
24.992966728146353,-36.25998432079816,-100.4053481243492
11.615686052847478,-63.63954453763614,-10.610344376617338
-108.23026984474969,35.026283767064484,-94.07900443115165
-9.750578177105067,31.573454522273973,-17.043566084226526
-14.943120659546244,-16.204312725067048,265.4976957461291
-63.84812657185797,-56.33192889215805,-156.08344854971608
-50.93624536803589,-3.790565969897898,-121.35981298548788
-39.99171756658907,95.43150647788524,-5.202567359053836
-100.22060344682073,-71.0252736608538,51.786785779534405
-16.987585645195054,91.99740825190412,-26.754152112934044
12.188245661812683,32.089941302916145,-23.784671314707328
36.843111142566556,-31.462179822415372,-118.14865681492532
-76.85108704753763,-47.74768365422428,123.51606758605068
-33.51734780928041,30.028921884014338,-56.42592729034722
-21.34723315431248,-60.12430789770521,-3.8510085524241746
13.629672662010965,38.098818075319194,37.43082024311897
-40.25275076495383,5.623070577096566,-137.93559796524843
-18.45569192077006,35.14459535528918,62.50402197083781
-54.10725053641276,-47.95054954175605,122.59823894839809
-74.69523589551372,-28.692328687046537,115.59971222268615
66.23555728163302,4.536156049154857,-188.37048118307843
50.47819164777353,18.819228279815633,49.6895393583606
46.3149748084946,16.941487923903154,-42.50512073001784
85.38919691981054,-31.406662132962087,58.38838845463444
10.318445248081092,-2.4707655559769957,-10.648697030681971
28.857474302189328,122.27358239353836,-44.71020380932297
-88.97751682383482,-60.564785241226524,41.42241076999798
-78.65060825937191,117.20217606633592,21.597819311121516
-54.248673504208845,-26.58564395775419,20.051654674085935
-9.482520978777437,9.531935639187267,-177.44419352607807
5.622769036307591,-14.63367315378222,26.779391175012034
-55.22395324793917,35.356140455523374,5.598411959211927
-17.115946290017014,-38.181263515981115,50.7863242676223
23.141578958740517,2.837744214195663,-98.45899445057108
1.980918849672332,-72.21672488150455,96.99477343525352
14.605054983843718,62.76104328859188,39.82059080722397
-38.78708825395243,17.69723063070312,-78.58935464255094
21.07135519574552,17.60305075899377,-69.94688264668092
-61.19384758627008,-21.199720451479536,71.1420131122853
1.4753284917712322,70.23935821237986,-11.162360409762686
87.7923993482794,0.8060699437100338,4.217279537579466
-5.905909295035968,11.728593440416477,-92.75252928801513
-2.209296339729709,53.53500000047485,97.97025850153688
120.84414207402054,37.502734459397,-98.55467156131805
-26.170311799170072,26.97158571986963,-35.38759541720262
-65.62912916166714,64.55956481746215,67.78326704225968
11.660468529949306,-32.25177166027428,63.05819526875081
15.253505620357435,62.366476942469596,-68.72217884371
19.4501435484778,69.31141047315158,-41.714197645904406
-76.9015858627971,-33.789068241501596,-1.6657262598214475
-0.5743212712322345,-68.06893469806695,22.19104923395429
39.26370516230192,-10.19804735212804,-13.766515853882698
-24.318362662801622,-79.94456918302679,75.84196444486663
-51.75267829585444,-119.7451782943987,-63.10610468306119
-28.19785033214438,40.924499615970085,60.851712607176026
-6.574089718540178,14.592315095273307,9.386702638102413
1.3403637930214842,-32.05198281561783,45.87750303115201
48.61825222448791,32.91548267534853,-146.94920824786328
9.173393436485542,-21.97747873877238,-46.00183643197779
112.67269769267692,-70.7827319609344,-166.89686452666757
-6.369722058552002,-15.73198578140983,-5.743519249947317
41.87986550488141,54.24347383077121,-204.97940122960057
-88.20281171859625,88.27128694410268,-53.10714106597425
110.920022723156,27.113096605590382,14.046904229696965
20.048328084597717,5.987575995216938,5.224305843857887
27.404709855106624,9.85493158090431,9.69640177774668
-63.21514500372143,-55.53763979813073,51.234873854339256
41.41349943335464,-22.17176647670673,43.02884273837632
-93.59915337477152,-15.541588346259495,-98.88199918858196
-9.213024634114554,-3.0716431844774688,-23.359838237018458
1.2939939854719238,108.22796745495135,-81.16782781618036
76.25435459140849,56.34255938300604,-127.31442618085795
25.730703786188435,62.16234370528196,106.32845358933346
30.578728811115173,-16.185226245517654,15.592659580922286
-41.37585007135152,4.895609225009147,48.59043640386889
25.13382921140034,5.925093121257034,106.91555162721122
43.37885118347863,88.30854620717487,-158.4369364826078
-54.83844218530074,-26.510744235294432,-60.85376411016651
1.3609446362685012,-82.91114646146552,-33.20123002167584
39.29761594679487,-13.506907646326638,-95.42776148487975
-6.758899480034287,20.872639895228318,-66.98639930395628
36.75222845200245,109.46166747224142,-95.64767360712081
195.80045880598215,-7.568011037471267,91.26135661900388
0.8193777034271152,32.53109818846921,116.51646874020336
73.39022367266722,-6.088735039301715,73.4686178740743
-68.00144987944964,-35.89700368385764,-52.66683975463359
-8.971828776417814,79.22933162793265,-3.7683996053977116
-1.6484405678058465,86.63798834814864,68.93308981350944
-76.18131062848539,-10.537002842638818,-16.467340825365046
42.065006091733295,86.23169232698906,-68.16429047283034
-55.11353589579472,15.378133048448367,83.5941444438551
-41.09438836510033,-42.59419351008965,83.66321257086038
20.269883555244416,96.71554345003236,-150.1874053909327
73.19689060384155,33.29891429052925,139.87814447292732
93.76775070424085,-55.94518021769973,37.12522294726771
6.864094786520017,27.592189801357588,96.87003308071017
-10.778347804447785,-49.63860618313381,15.667168475782992
-30.13286511681756,-15.533755004740879,85.00499022761701
-57.545567701336665,48.08088033575239,-6.2834832094588595
-1.289167937986461,-31.73555930403811,-133.91905522905006
-66.9879536516002,-51.63622331981021,-109.96141151629512
-51.09378695041718,-56.00707240514281,66.71546778067992
-110.37726688877738,-1.5448448701282738,-184.49074498183506
32.55605644625065,26.50262306589163,46.44318683057212
20.73380946734385,8.688646096715924,-37.792650752793776
-7.587647555471447,24.233601296117005,-40.57136874633868
16.8753341549288,12.913559871534448,-117.82619102888225
-31.188578865588788,44.5363456867562,21.764816431772758
67.9898670202546,-27.534449514491815,93.09656516038388
-12.153135645161775,-113.85605219821696,9.852819485399914
32.44361051874829,32.217879476044956,-106.25570919991155
37.83577752690218,6.061563770220433,59.16163969352275
22.388613777397843,58.791505302309176,-37.77416240267317
28.45007967464991,-35.90630473147459,54.96423566057511
-89.40126821148257,-66.5768923712893,-16.910711779939405
-46.22040612457317,-71.60781397646528,42.877058487577045
16.346576300494277,20.73024454327248,-72.82921722777631
23.553364794744873,22.53826941025595,199.4791360766358
76.5066635746278,-65.42166288184369,-24.562850887220762
-11.834224715480797,-32.116588145319504,182.2763165304593
57.025683886923986,81.75414275305897,169.37445344600283
90.77887929981179,-45.693659230008244,63.96490282347614
17.852600002260765,-50.97585873137259,195.79327010873575
26.15249142560999,65.90392677533876,67.94923078376624
57.14921813412772,36.1642004272484,-81.46167047141023
-26.781294527658524,-5.9354886871059875,109.37444702873489
26.795698571282234,30.79023477906559,121.98491246618431
-65.99476085917154,-9.534298433396488,191.67314432673626
39.7134028983713,85.83703860736355,9.392572712504386
-88.07720042675517,8.09781946147761,-156.79526808755108
36.326361307089535,22.414508450430528,-239.40919732173435
143.58826332233394,27.7687358528038,47.61067505761804
105.60713608884626,-32.357163959762254,81.32151230669375
42.906782570721695,-71.83860020183617,50.55023742351216
-34.303400045494804,20.631708748119788,190.32180875750512
-4.481388432205998,74.21299395419709,-58.48496728812584
12.809349902804051,-36.83501955592778,25.90844915332108
3.86562463684351,-44.941028662504806,-116.60388469552016
26.722051397599422,-16.410574285010853,60.88799922903549
-41.240882813768266,91.90708406306581,48.380867680227
45.196736573040226,11.030210451719546,-59.096567095064984
-43.8485051100806,-74.51394748337154,-16.11278752305802
36.39919070815835,-72.591943048964,-47.60670002073009
50.81280124472507,19.739702753909622,-7.438083604201142
-13.363071544041436,6.710426240226863,43.61116883249955
28.322789074623877,-38.27581375303738,-24.55385983512538
57.99953926256576,-121.76484292899875,-49.29859545393321
44.09432930870959,67.06322930855563,-58.22975041981221
91.55538527619504,38.88575756039202,136.7702455555212
20.350291279399,-67.37310546337996,-40.42341774208141
1.4012741536977584,-98.40914988163371,-122.73445144492081
31.775470652956233,-44.27230723282469,-94.68410739082559
14.484509044505437,23.520789285416523,149.67652208898534
7.7851811151462575,-4.681137664459312,-25.105473617001007
43.54665817475131,92.35150074329064,-66.63946246939847
-61.21514511161813,45.44234391008196,-106.51449636183361
-32.961281116274606,-6.051095004786221,-56.67718416596364
-1.2735565125585813,-64.3487938235236,-98.24697050191092
-32.1644947155198,-53.97713022720298,-221.37418911317636
23.264644200258015,33.63314800592872,-37.82306808063274
9.468084667141952,-64.99717939560291,45.415290310471086
7.062442801798649,-24.187245054839877,1.5849161080417193
12.967928958657101,80.64344260302215,155.50142125934255
25.792300394001476,28.797312024946088,3.8267297615174143
-59.04112701696611,43.02367164166275,-26.023909502603022
55.255903634769645,-22.20311228894646,8.218575903698035
37.35450891413238,-63.54128012828807,-50.64431211489305
-28.328547618312722,-57.6584097508296,-36.171393490246075
55.129113376556184,60.64113932399211,23.921092329542503
16.077549959253275,34.57026809075664,88.78242737397952
-46.3316971650956,20.984191544187937,29.3527063423486
-21.634545958787346,79.48454963457921,-40.58780048905682
-77.29564731804143,-83.03623721385729,40.431612299324264
56.42348748817155,47.49796619258972,53.5486522948853
-14.47364451887783,43.68435207392131,57.87276806094647
59.602133772669774,29.28142367202975,114.88063583366119
-29.601964251860846,-0.3099133384443964,28.254871095958816
53.50679087261824,12.162911070131829,-17.12986396941799
5.263962311772534,8.589664561896097,81.42678672416054
72.29457125121833,37.34363144552788,-128.0939907334943
-40.907664153694576,-42.78556706169178,20.722470683003863
-73.26637987498228,72.69936621404439,-28.362229385746776
28.02807603769754,36.3987971456386,41.71561240924151
78.00416650637487,33.608041160133034,-10.127134792557458
15.268471140664728,-45.74694633955094,17.463585708016957
-62.84214753892835,40.72965226962342,-54.10640910456142
-20.571225178193007,-18.86306698877892,-1.7597774674683224
20.948271450766637,0.23964711646348283,4.0995622901816615
-51.91565119053245,11.955502741706034,82.31768167809064
34.54130961550192,-48.68834088640091,40.684233117473624
-41.891906453505854,-35.65669376220315,81.99078097576948
-32.625343006545535,-20.641555159111046,-124.93968641076728
-45.45657610078328,-24.021039531396607,-73.88035975584603
-48.314456559500165,-5.21542163820033,-31.540121326665066
19.47457904590773,69.73441531671745,-87.44616300623758
14.719789506368594,-91.2630276251755,-42.538698788746416
1.4483842870413863,-12.931020783241328,103.25363171519622
4.80439240721538,67.19767213673826,-67.28211771832166
-23.111414527351286,0.29610141576287863,65.08143176769744
-24.50294326436532,15.196910686313647,-90.2736663438753
57.61463488915495,-60.698095441312546,111.10381640381563
37.50219336286651,-43.92710766478406,-82.34475284343715
-29.15210161516756,110.19577696599146,88.84253529891858
-52.92309354310598,18.17530076163105,-14.107745272463605
26.846606802562228,-18.23445729706202,-48.95817968231827
-113.49340953285747,-60.50658620814362,-5.956962561396658
9.864259234687028,-69.9435188484961,40.29981199017294
41.55217288317975,-96.52826568129994,40.528496956078385
-50.07742399476107,114.91771271920959,5.439235413698162
14.311730133259488,-53.18968568597807,8.14631802464359
36.940751141114475,14.647655674635828,121.7739009808087
51.74632275053035,-21.588882758664248,-4.05902795310342
29.68285598356266,14.557115283818545,92.52581800125934
-21.699450331059165,83.26247436818933,-72.1133545624923
15.885422749183606,-121.25948508413317,101.63482771703373
132.86141332860632,-49.983727516753945,-24.480723249322804
-28.584615301072823,-3.132605361351173,-14.743845369712574
-26.208312865796916,13.583886870037166,98.48567221989224
42.215168080880844,61.806466476349065,-19.043235802242812
-29.426123447043818,86.37418898030667,30.38963853444886
-15.546462263889843,93.42370858783437,-94.8291119845392
43.886236708987155,42.38537199482222,-28.223536826392753
155.0526577580211,-30.669345563803642,205.44624188338705
-67.53593569056996,-26.940226410072526,75.08628726636384
-73.51371158483798,127.80045724045954,34.233800429093655
63.624432816126266,69.18173060539515,89.42377361434971
-114.88520055815721,8.176378278803343,96.54498076359472
64.30062195823815,27.587981888517447,8.638283191628663
-35.21566941682991,46.69503652419711,39.94070601460403
-6.097754085432226,-15.45522826879252,53.78511398478605
-47.29059646972449,21.951272620035354,-147.7099918534905
81.36136548814082,31.27828444484421,-128.9981576953273
65.26826542413156,-15.798561936173297,32.83132538325696
-16.80107721585426,26.184338237910037,-209.5494018897269
37.24473763480817,-13.73806109787233,161.54744334520467
-14.619829120982377,50.837805992000895,82.97367299552019
-28.31547496107541,37.2695290375263,11.4659437994027
-34.89587799815583,89.20117910764411,-80.70195806668906
61.383436650746425,28.94061264765213,63.69013478192958
24.683134708417455,10.639307678085668,-83.18346747420013
5.126575505729105,-52.638208286136745,19.655971565540625
-10.263411059817331,-114.4797587624375,-11.212518718074831
-1.3622958802117613,30.76012509779444,-121.33469285105969
-29.165650567610157,46.28159942454953,6.658278978441355
27.454647803636473,-57.54966498462455,-49.601253319774635
42.61874536863684,24.856248273065777,51.78371384126617
-1.9256211331828688,-91.81094410066606,-112.47005640983285
94.3474560740863,-11.205535604798653,172.66592916463725
56.228629556801394,-33.18709222767856,36.30337170981824
72.08039842873747,-25.26201227003579,13.449898689675642
53.97509711758983,26.675474026275587,0.5990012660980734
-13.384450889186402,6.640730644311878,84.80702302422618
-41.00678614841562,-34.32625316036788,120.01709952224134
-75.50932014946478,-51.775654910619885,-1.661199570994571
44.133293431109166,34.18487924877935,-44.571945118393664
-61.699897906282885,-21.244392575609748,2.8131842969255607
11.980105455127445,-3.262853531881462,-121.09909019184367
27.504902374450896,15.670410617717376,60.36707039757482
